3.739602306332404646e-01 -4.543056620390201750e-01 8.942653919799035608e-03
-1.307950325976663664e-01 -4.473590376304428795e-01 -4.318214601895647292e-02
2.597898211350397821e-02 -4.446424759707230390e-01 -3.040073316235202688e-02
-5.358120228631894078e-01 -4.424678863311328203e-01 -6.062874348876769702e-03
4.884258831883883656e-01 -4.412595768196402868e-01 6.573523199339455052e-03
-3.805499887172388712e-02 -4.341110458509780945e-01 -2.548231645160324854e-01
3.186965726087777617e-01 -4.337713725426042832e-01 -1.034376822033364340e-02
-8.497189576562383384e-02 -4.329859571837592069e-01 -3.088368766847155236e-02
5.632541995470165264e-02 -4.319520907277714650e-01 -1.355559036427534392e-01
1.235336235877948080e-01 -4.318735131065689070e-01 -9.776296834109765056e-04
-8.528949848650177468e-02 -4.277924477407082926e-01 -1.861716492335267759e-02
2.540136558270129630e-01 -4.276560120987955016e-01 -2.547588963422737357e-02
2.985991777086778876e-01 -4.280373602673741007e-01 -1.007900665182600956e-02
3.703653883740543606e-01 -4.268272980404320127e-01 -9.980834879318151165e-02
4.860704604404939566e-01 -4.280468455509831571e-01 -3.059291109645976333e-03
-1.437677856314710789e-01 -4.222959063158340798e-01 -1.327830963390386199e-01
3.781705850824678694e-01 -4.198115978640501456e-01 -8.580528571453885367e-02
3.658542214663669245e-01 -4.181711519398718657e-01 -6.767653976398636806e-02
2.585207440574210577e-02 -4.149217942409050286e-01 -4.640940109919518552e-01
2.542263586373638140e-01 -4.142947124205656473e-01 -8.179033865746900001e-02
3.389613209188659382e-01 -4.130921581490890060e-01 -1.007195120102405556e-01
0.000000000000000000e+00 0.000000000000000000e+00 0.000000000000000000e+00
6.042844225912647610e-02 -4.144708161371370991e-01 -4.962575539889470949e-02
4.738955587082228083e-01 -4.127314080692173759e-01 1.178396152379671859e-02
3.437514886357040389e-01 -4.113834594232887998e-01 -1.060071066627267244e-01
4.587596863526283708e-01 -4.109815647164575814e-01 -6.296528290821670586e-03
-1.282136474396611825e-01 -4.069298315591490245e-01 -7.056331830882465149e-03
-7.176741357270030597e-02 -4.068325926734546183e-01 -2.233536648512356865e-02
3.676719635210359272e-01 -4.025370995103535465e-01 -5.345473277825173869e-02
7.124835412243472887e-02 -4.001572433257043482e-01 -4.280797030877216136e-02
6.324034045911272606e-02 -3.921333709126764155e-01 6.031732280594504642e-02
-3.130633334891862879e-02 -3.847539675518210633e-01 2.038439026060078624e-02
4.347212873345199236e-01 -3.846039115434214395e-01 -7.648850082524524981e-03
-4.583497095692540269e-02 -3.816088154142428523e-01 -4.682874820366874496e-02
3.594675665547599763e-01 -3.795008584191363332e-01 -1.851324922490609967e-02
6.156060808478571594e-02 -3.777891476739292376e-01 -4.611841224026984321e-02
3.216943405829141844e-01 -3.720281119140689263e-01 2.683559589317168273e-02
-1.860710087118468969e-01 -3.669088645827524586e-01 2.342702805818116726e-02
-4.975927712199797459e-01 -3.605001047277419657e-01 -2.810064380741249257e-02
3.467727159017234828e-01 -3.549424796965823803e-01 1.605503327051773649e-02
3.528617751808477143e-01 -3.527951086969138839e-01 -1.628510298733013353e-02
2.798545770203458849e-02 -3.523745600899415575e-01 -1.597876508107206120e-02
4.646139957945819576e-01 -3.507110269265439340e-01 2.301997508465236653e-02
-3.102700901564796054e-01 -3.492991778102146339e-01 -5.033326019544389837e-03
-1.748441683624137877e-01 -3.494962772904270376e-01 -2.001670540647984900e-02
1.814357065869816044e-01 -3.481721523187805700e-01 -4.448925703082240272e-03
-5.010494174582946769e-01 -3.470268043229836064e-01 -1.661211568713346493e-02
-2.594384521522180576e-02 -3.474412994337395810e-01 -5.534401886729910930e-02
1.513319429591424847e-01 -3.470016918873415346e-01 -8.647853441316773540e-03
-3.186164786059839660e-01 -3.450742498548327597e-01 -1.436370293092907764e-02
1.708142179650518899e-01 -3.434944199006749188e-01 -8.222128895397872589e-03
-2.307078428908077850e-01 -3.440568942729533841e-01 -4.787935908340199692e-02
-1.874601675494220743e-01 -3.428284174872656132e-01 -4.316230733466853292e-02
1.981823457063171257e-01 -3.420613319971340105e-01 8.180199410310225877e-03
3.499859327571668843e-01 -3.431254217480997348e-01 -4.877323601384637650e-03
3.608979556862633720e-01 -3.375285299993907584e-01 2.749758411712905914e-01
3.213438634697319274e-01 -3.316727518686989895e-01 -7.113589755133871255e-03
2.275452978493416600e-01 -3.294199233680351058e-01 -1.105207780083009191e-02
3.570095976714438013e-01 -3.295279583917503641e-01 1.262568871930207920e-02
4.662947481381212733e-01 -3.300450978215618281e-01 -1.970079817143222112e-02
-4.718956853003744567e-02 -3.247121443993664647e-01 -6.181093196740309291e-03
3.267103922506928715e-01 -3.265816879072365730e-01 4.834764539742460870e-03
4.393646579439561828e-01 -3.236349902903863929e-01 4.699702401112795108e-02
1.463406059299696416e-01 -3.209528643342038357e-01 -1.055695432733430757e-02
6.963484128773740622e-02 -3.205108118233972458e-01 -1.236555388547661352e-02
-2.623343801234642378e-02 -3.184619905638348958e-01 -1.326779551916683064e-01
-1.922726569001756147e-01 -3.154938332292542280e-01 -2.601222204032894655e-02
1.726267817144891692e-01 -3.156136954000783312e-01 9.726607742920703736e-02
3.572718082181765009e-01 -3.144689512810328602e-01 1.646281005048750440e-02
2.315988908765547472e-01 -3.122528561613022724e-01 1.681987424136954234e-01
3.264513985299374310e-01 -3.133699692367908352e-01 1.699013627434818249e-02
5.482378989667724412e-02 -3.092431786178799213e-01 -6.135319292851232169e-03
-4.453717782302175909e-02 -3.073326156770109230e-01 -1.729942586548392086e-02
4.347097538365038427e-01 -3.083760557888152731e-01 3.395711094678068726e-02
2.312980784180947713e-01 -3.032432506879923495e-01 1.089603013683321069e-02
4.701992819372659456e-03 -2.993116153607279784e-01 6.054801440237194132e-01
1.809331756019956494e-01 -2.975253037436574877e-01 9.273461126223957185e-02
3.317761085731938397e-01 -2.918775685182115609e-01 -1.337810461205806919e-02
5.313793770707639363e-02 -2.900927150425654522e-01 9.331700881423012073e-02
3.305111898315945540e-01 -2.835892570028272774e-01 -3.784712622244593497e-03
4.262809636435206939e-01 -2.788796958613066757e-01 -1.321526005524984934e-02
-2.286793987346275314e-01 -2.712363541739376549e-01 -1.671754067512204456e-02
1.433555483414019616e-01 -2.679874530647097797e-01 9.973530862585197609e-02
-2.332729477710011878e-01 -2.640172579975563205e-01 -1.242853188085925147e-02
1.926140983988302025e-01 -2.640690441111736009e-01 7.925392602907549433e-02
4.311338986965007058e-01 -2.629982086150324805e-01 -3.032205389614324106e-02
2.262412279818238336e-01 -2.620387368290905128e-01 4.276367467263118144e-02
1.656891080507266467e-01 -2.581749271711116234e-01 7.422903184496972007e-02
1.598803049274759303e-01 -2.566397840965655153e-01 9.380936920604987517e-02
1.929802673460479234e-01 -2.516645171843804873e-01 7.827409467129925469e-02
1.411724219312170403e-01 -2.481379064129642653e-01 7.591092495911429261e-02
4.120328567984830603e-01 -2.485599278900622600e-01 -7.921650981213180934e-04
1.320639399469874520e-01 -2.464860678383641590e-01 -4.119831487015874344e-02
1.519316063968080277e-01 -2.459612105690943962e-01 -7.331645527672839280e-02
1.655632595417621811e-01 -2.411885074852878341e-01 7.627911912603219102e-02
3.775925763757713161e-01 -2.396169108751322885e-01 2.066639890424029624e-02
1.926523864738767522e-01 -2.359208611244631160e-01 7.371082994088626328e-02
1.505468020431776910e-01 -2.339380244465292247e-01 9.954125348393892680e-02
1.984079942797472018e-01 -2.306069224555897246e-01 7.188863998652166021e-02
1.311775082423236871e-01 -2.254108723115720858e-01 2.108529049581428505e-01
2.007532957946887298e-01 -2.272942018838181311e-01 6.826580506135060400e-02
1.879457777732775337e-01 -2.237207832998092671e-01 7.308723277287494657e-02
1.482032266299800893e-01 -2.213783011945980039e-01 9.962406403703542856e-02
1.493342940272568420e-01 -2.214660842540857877e-01 8.353495836971711053e-02
1.333939797998340004e-01 -2.181593140776217632e-01 -1.574043856717214848e-02
1.845075400177654534e-01 -2.128903274049827321e-01 6.971759963626407430e-02
1.947615258865844357e-01 -2.111177871235868919e-01 6.833700324749704402e-02
1.765519370801219290e-01 -2.038011574874860621e-01 -1.595033529599307678e-02
1.874964421056718178e-01 -2.042218975675747505e-01 6.544790469981978664e-02
1.720315119903535750e-01 -1.852049643978502802e-01 -1.680254967861927531e-02
1.504957251233922377e-01 -1.834928707064104880e-01 7.405429873855290390e-02
-4.293806224605198341e-02 -1.732330046982546723e-01 1.443064945435819368e-01
1.760680009184679984e-01 -1.747284391942136861e-01 5.915721428377401087e-02
2.069223049682236970e-01 -1.734635677877214566e-01 6.342455253729212261e-02
-7.627787434785612830e-02 -1.693640399948360409e-01 1.306614385325077510e-01
1.510217154002612416e-01 -1.630582411259580145e-01 6.484837061337281328e-02
1.767092477163275110e-01 -1.597259902963205080e-01 3.371998677699560715e-02
-1.784230822104839950e-02 -1.578506142227528997e-01 6.005030856548049245e-02
1.278892844201907075e-01 -1.535485962449952835e-01 6.979878178813950229e-02
1.454194952720875011e-01 -1.481428683098923449e-01 6.418030199563216909e-02
2.130814282863162934e-01 -1.436378004566147837e-01 6.851327067831720907e-02
4.224882485567171830e-02 -1.404866537376252833e-01 -1.635837378718893800e-02
1.531607477568064923e-01 -1.388509430909008746e-01 5.401561065602752953e-02
1.002152455739738213e-02 -1.364930547641754754e-01 1.166288256449609928e-01
1.762685425574413156e-01 -1.330812689477537114e-01 3.265904385237670959e-02
-3.312524848813874767e-01 -1.301928528017748388e-01 -4.421670782945873765e-04
-4.605791268898435514e-02 -9.794933970203698048e-02 3.258445564793748667e-02
-3.694154555815194058e-02 -9.295460144679104642e-02 5.848046788750122654e-02
-2.634194704470170859e-02 -9.074382338821398997e-02 5.939946436197982710e-02
-5.485016498781411509e-02 -8.927802303918276616e-02 5.880222348961097051e-02
-4.563160478782569279e-02 -8.636621771560881733e-02 8.874292671185209092e-02
-1.641976500656276358e-02 -8.764858681919356076e-02 8.858128657809093143e-02
-3.209272961160626603e-02 -8.329080597847941803e-02 2.291176693202101947e-02
-4.490244329021256427e-03 -8.406447519807259960e-02 1.051974327027425243e-01
-1.368687519094510460e-02 -8.164905656423991631e-02 1.881066273102087738e-01
8.791245539431355102e-03 -8.242714439420999184e-02 8.741843911116824184e-02
-2.390406370895090810e-02 -7.990346980614319861e-02 1.076844396660628644e-01
1.079772112796196365e-02 -7.670380674521529163e-02 5.003374034374347828e-02
3.107058996216348346e-02 -7.478309572918065418e-02 1.464621657774050623e-01
-1.003028556482943832e-02 -7.493515484095114587e-02 -2.047189298740562449e-02
1.938617573225603907e-02 -7.285257539810929828e-02 3.298583558961877826e-01
-2.006068883295946813e-04 -7.261947897202641888e-02 4.330250022434443263e-02
4.152809891842252493e-02 -7.263656426548377454e-02 1.409906194968812143e-01
1.749022545679728424e-01 -7.191376798003000503e-02 2.177192770528247126e-02
5.329038507430087016e-03 -7.091274652784393395e-02 4.532776548795686838e-02
5.152360105109221600e-02 -7.064795393665740386e-02 3.198519212626228791e-02
2.710436122094288247e-02 -6.583850274321625951e-02 1.189505731347662888e-02
6.326262286344309926e-02 -6.706101440489521670e-02 3.219548831862285854e-02
8.293853510135021367e-02 -6.015178064554482090e-02 -2.317556370676499347e-02
4.203241865253155019e-01 -6.309074569423546441e-02 -7.946804130267492777e-04
7.157505810705323823e-02 -5.354737208739569765e-02 2.415845763302995608e-02
8.610491183219776135e-02 -4.968633142525297891e-02 -2.158717637323055369e-02
-3.719410562695284889e-02 -4.861623236417465105e-02 -3.408406042973305145e-03
4.727447980592315302e-01 -4.789414305638118458e-02 5.040267054388872063e-03
9.463875885404839094e-02 -4.626017039640503009e-02 -1.951866222490033359e-02
-6.050616887714442560e-02 -4.503556725914766717e-02 -6.877527317024667575e-02
-1.979594155846456024e-02 -4.349376681163370784e-02 -1.591085370026575768e-02
-1.292484050059753732e-02 -4.222050004542538676e-02 4.495756931602788026e-02
-7.197874334757300985e-02 -4.258857028982139525e-02 8.654169155167439412e-03
-4.912252787611187665e-02 -4.108538849700155843e-02 2.479051939872574731e-02
-3.872488326669815129e-02 -4.196642994875347116e-02 -2.072924631921837721e-02
1.720985945808551909e-01 -3.828667014167382032e-02 7.902975712670382014e-02
9.293580376491875072e-03 -3.475201749937165824e-02 -1.187285107739694152e-02
1.665702829909885274e-01 -3.792949913620750901e-02 9.422345571629722749e-02
1.945015906557868435e-01 -3.204335042352519231e-02 -1.129103595488660169e-02
-8.714054645891104733e-02 -2.848625124050836385e-02 5.691697863801988000e-02
2.093883551460681558e-01 -2.797734515469920552e-02 -1.430372762287248842e-02
1.750437949109727720e-01 -2.458956712132529324e-02 -1.142398628410944139e-02
3.272440715262392441e-01 -2.845060778346801197e-02 -9.178376855054987127e-03
-1.129026149866458190e-01 -2.378234592027016897e-02 1.306791710392945019e-02
-9.002360712624815631e-02 -2.439900718447073069e-02 2.453588044845435648e-02
1.864708238331134194e-01 -2.396960662804331274e-02 -1.007289324022868707e-02
-9.747691445641624985e-02 -2.059384721489457282e-02 4.549351779063051660e-02
7.435086508875790590e-02 -1.737303373896256081e-02 -5.949785934149035005e-02
2.538135064838905608e-01 -1.641269295964649724e-02 -7.835395204237059763e-03
8.815654067316543163e-02 -1.342889374433155376e-02 4.911010668941601098e-02
-1.264752276060415181e-01 -9.173889780984177678e-03 3.229182048494446539e-02
9.120263949613109655e-02 -1.247364909565018727e-02 1.333951844634195111e-02
2.337801342666554205e-01 -9.390696263477542327e-03 -1.953988050575899624e-02
-1.256608606491856350e-01 -9.145404472754409611e-03 1.941065491027155199e-02
2.504734996094405419e-01 -5.533043202623781111e-03 3.119304411714214739e-04
-1.084278923635057790e-01 -4.777991061418625056e-03 4.308107955416969059e-02
2.909279892629272890e-01 -4.939123053163014913e-03 -2.480596192587673950e-03
2.622311554747085438e-01 -1.694979314440954931e-03 -1.023239489088187491e-03
3.078394710988054395e-01 -1.503093794473321382e-03 -3.210325152535950435e-03
4.561994079109707445e-02 -3.476347357525250019e-06 1.213364445172549072e-01
1.543774141087467244e-01 6.298758175816472279e-03 1.102081149672726364e-02
1.639365655664750676e-01 9.777942529187250847e-03 8.530172328465406711e-03
2.963929058432906438e-01 8.651373627492103813e-03 -3.866684530024159985e-03
3.025051890367873586e-01 1.015979883795919275e-02 -4.510327762768254548e-03
1.741488111567596753e-01 1.148676644894813977e-02 8.044949655388418039e-03
1.785280881993789870e-01 1.270586105193562999e-02 8.361810774459988230e-03
2.857547066176830200e-02 1.788188016224463370e-02 9.739353475768005794e-03
1.945601211967391553e-01 1.727340805594260176e-02 7.564885202818011876e-04
9.784632664923904877e-02 1.840887309319657814e-02 2.452992873323562792e-02
-1.299744673663664751e-01 2.173054871533202509e-02 4.036240759204064860e-02
-8.784173606278607160e-02 2.042588035804518420e-02 2.303211729663075247e-02
1.986452548103635474e-01 1.835331643205765501e-02 5.660643198304718925e-03
-1.034386345023426274e-01 1.981240049331599307e-02 1.835366516492547770e-02
2.117754753987142191e-01 2.235669526314167099e-02 -1.134174023818977119e-03
8.965777843533895286e-02 3.101069097331843327e-02 2.457400587194421074e-02
2.238978094869665536e-01 2.938446561020311223e-02 -3.173048731436071360e-03
2.316046968551478680e-01 2.877245861559955820e-02 -1.763568858122421812e-02
-1.403850185092743730e-01 3.252326967753980946e-02 1.759518921668795990e-02
2.129645241227520469e-01 3.334919632919048499e-02 -3.919945744072227643e-03
2.521722975621206175e-01 3.396373666041013067e-02 4.603279819546997331e-02
2.178811680219160385e-01 3.840220132660651653e-02 -5.165816849140958227e-03
-1.471025749711043218e-01 3.920244112326613101e-02 4.466815647997759292e-02
-1.228994901547936086e-01 3.916709224025091002e-02 7.137617044400195072e-03
-1.155753658483225366e-01 4.194734080420319672e-02 3.688694455425601398e-02
2.325273766964335853e-01 4.167927844133775817e-02 -1.981508259859571242e-02
4.892813247204019778e-02 4.310148183465021404e-02 3.259641045804605522e-03
-1.120566289842084839e-01 4.389258983653090279e-02 2.266311275640469150e-02
-1.035743296371643696e-01 4.603320036232273066e-02 -7.704204585208669631e-02
-1.201015576870989171e-01 4.745310607823920168e-02 1.153033137617559024e-02
-1.146899933424561646e-01 4.917713001769663528e-02 1.080510339607584913e-02
-1.675749250459119058e-02 4.837742045428224807e-02 5.904571506867489772e-03
2.013681018521985000e-01 5.056292406150341562e-02 -1.602411851732866641e-02
2.401382300403177850e-01 4.989217900628956787e-02 4.134756743514293731e-02
-8.867834619438721977e-02 5.115737444420941082e-02 -1.366249321587081726e-02
-8.186259808108031777e-02 5.266341360507297009e-02 -1.762384865073908513e-01
-1.030198979111060786e-01 5.422984044108753593e-02 3.580268843290306674e-02
-9.711313851388894691e-02 5.480567374540551429e-02 3.569665562193708591e-02
-7.433836366107189619e-02 5.559212747768919188e-02 7.478794285011744654e-03
4.070066850973213385e-02 5.492833436946834014e-02 7.036686312232053910e-04
-9.120139695936553548e-02 5.709769532011255144e-02 7.220275181892281575e-03
2.937893179396951562e-02 5.770292711213818870e-02 1.231575906441434659e-03
-7.039065128401315874e-02 5.772018915001062705e-02 3.718299482710672038e-02
1.414710387324819366e-02 5.754951295985212545e-02 2.524563128447005703e-03
-8.492427104932619153e-02 6.018559699590732975e-02 5.172673167182250710e-03
-5.805463364578276886e-02 6.078882568456210611e-02 2.106569341499796300e-03
2.414288061301349958e-02 6.049949507708250740e-02 2.782202512896635865e-02
-8.113610539482309092e-02 6.076090006698008084e-02 -6.047498206845360394e-03
-6.782939090315846797e-02 6.477788821802495101e-02 3.652709003944829697e-02
-2.756923141893242047e-04 6.458859494947843949e-02 2.411504281823040677e-03
1.775010588613272489e-02 6.425920227458159495e-02 8.564692143815234946e-04
3.474294988148479701e-02 6.605333483201920874e-02 3.268870689227018622e-02
-3.967627916426876705e-02 6.681828466046862980e-02 3.771970731834163940e-03
-6.175672959060130029e-02 6.788440697220775311e-02 3.917911812503595270e-02
-5.621366767674128989e-02 6.873007008354192759e-02 3.667578447735553304e-02
-2.812960000760767257e-02 7.201203712709026983e-02 3.756569312251227533e-02
-4.605791268898435514e-02 7.250173698646115994e-02 3.687175767271689414e-02
-1.879503792451202998e-02 7.292692513432925960e-02 -4.026257866090237475e-02
2.392180608924777685e-01 8.134473139115930285e-02 -1.164894099166781036e-02
8.655738586661056166e-02 8.247837006945750449e-02 -5.129442868402366192e-03
2.569666236149781291e-01 8.856721516882960776e-02 -1.334078828622153531e-02
-1.588355554273515602e-01 9.131741718221894621e-02 4.956873271689910682e-03
4.649629049239305256e-02 9.126109462861470289e-02 2.183845580242392906e-02
-5.109628316841663409e-01 9.847032257515428433e-02 4.187512994594245184e-04
-1.340987913354944605e-01 1.008897179583261722e-01 8.541465431693611235e-03
3.975872694216788655e-02 1.056279411524916473e-01 3.295319984388578316e-02
6.917844429481571911e-02 1.043502557759064253e-01 -4.085353792076315896e-03
7.548601236288389471e-02 1.053878633220132616e-01 2.349708808834694365e-02
-5.131231558980184904e-01 1.079141301615011705e-01 1.195922046369019172e-02
-1.309030316454155018e-01 1.066829874808859907e-01 -1.135809429109128866e-03
5.457946804074495506e-02 1.058299600189236411e-01 -7.580599740797709998e-03
8.043772751111716302e-02 1.070039553386642056e-01 -1.035524882235957372e-02
2.289891819581155452e-01 1.066336168742747226e-01 3.775157033772522791e-02
-1.616735413014217804e-01 1.118013879118801845e-01 1.717878950674287496e-03
2.477584984846233074e-01 1.088893469290861393e-01 -1.506829967462136946e-02
-9.706708298099482601e-02 1.123723902021860760e-01 -1.608335148366559723e-03
7.794060750188246123e-02 1.127876806628099193e-01 2.309540653499953379e-04
9.694553691643283122e-02 1.130838453876724520e-01 -5.258893781054423990e-03
1.916266897421481652e-01 1.156154145596126476e-01 -1.372219967275615203e-02
-2.654765926294670453e-01 1.170126969903993869e-01 1.130868206970200851e-02
8.949740789149644715e-02 1.178223042410580373e-01 -1.579622952851518491e-02
-8.747446868718586344e-02 1.194504148779341607e-01 -2.656750443245774543e-03
1.141196215948945963e-01 1.195143374413866894e-01 -1.109978784392841832e-02
-1.317807936117746659e-01 1.222470417576835000e-01 -9.717909906889162994e-03
1.068845876761599090e-01 1.228941030612771546e-01 2.684269697566087770e-02
-5.061167127715954228e-01 1.244303655171187240e-01 3.934863954342252175e-03
-1.148600928234006641e-01 1.268213050494633731e-01 -2.962025451461588327e-02
1.229251727230694091e-01 1.294493766720351269e-01 -1.260734484506663075e-02
1.342023446301712775e-01 1.320565924536278857e-01 -9.990614452467334525e-03
1.489427827680718242e-01 1.310813756860429169e-01 -1.620673254060748386e-02
-4.857923060699836926e-01 1.336507681628094080e-01 9.151046353780037737e-03
1.600364386761288782e-01 1.340307097404180303e-01 -7.687913099770747431e-03
-3.131339467423459311e-02 1.377686773748627580e-01 2.168490393356196227e-02
1.455681753995735905e-01 1.369487600333246513e-01 -1.545642519254030942e-02
1.647838461452203196e-01 1.366978418787216099e-01 2.392718528361368474e-02
1.712112998253194907e-01 1.387896120311473969e-01 -1.513266711463301557e-02
1.786328311915657552e-01 1.405053878979012905e-01 -7.379643613800676051e-03
1.626593287351578709e-01 1.417205646663546037e-01 -1.446787357597536725e-02
1.830782493146445589e-01 1.416257118302637341e-01 -1.667104871885097608e-02
1.958413594457353857e-01 1.411631716960095595e-01 -1.682902867741152900e-02
-4.571839938405175552e-01 1.460042012249442855e-01 4.022294839562357179e-03
1.742872131329525343e-01 1.467357463589443189e-01 -1.668614499081341393e-02
1.797335348899838647e-01 1.489434019328550463e-01 2.315692539055026582e-03
-5.257402523138393624e-02 1.520465036283463467e-01 -9.154038550171196553e-03
1.923525155254589003e-01 1.523376605947817375e-01 -1.760143966925633782e-02
2.040801999877191464e-01 1.526648145070876317e-01 -1.823193725277664004e-02
2.186401035750416000e-01 1.538477648771920669e-01 3.158939623176541811e-02
-4.325998034124665659e-01 1.562186144610230309e-01 -5.653854232980745631e-02
2.196530899212014443e-01 1.558139286653037747e-01 1.994772420048143008e-02
-4.155114746070086573e-01 1.634499943742521721e-01 6.134342883439303923e-02
4.309853886826235485e-03 1.655023505221159819e-01 -1.312489222366567884e-02
3.860325874296596793e-02 1.665342433321353732e-01 -1.395661479305485356e-02
4.724632092970348224e-02 1.881830186719531950e-01 -1.658973323842267283e-02
8.757578589551263948e-02 1.975376292434916914e-01 -1.862821268362372176e-02
1.464608053786813635e-01 2.003362592266118847e-01 -2.027568388763636292e-02
9.305325594310438764e-02 2.057870569875592248e-01 -1.937440332759575098e-02
1.443545689552702405e-01 2.051456515052479945e-01 -2.112777960136826352e-02
1.593268539410448714e-01 2.062773459949803490e-01 -2.061823546816957467e-02
-3.068082754203291795e-01 2.102921542982393033e-01 -1.303181638785483147e-02
1.081990926133113290e-01 2.121222838015474343e-01 -1.016059075305983557e-02
1.780282248261790545e-01 2.121353628882630682e-01 -2.198949966392606259e-02
1.591455347987650037e-01 2.294362256172085002e-01 -3.137508477244132458e-03
-5.369612437509659886e-01 2.402830303704295845e-01 6.024319489266062588e-02
-2.364782402502566827e-01 2.397640498529610975e-01 1.729051689704998451e-01
-2.312275172044775118e-01 2.417762850186026269e-01 1.155467548959938501e-01
-1.311368792021291030e-01 2.841541166769872562e-01 -2.751382984873505105e-02
-1.185277059629262497e-01 2.897413611263733313e-01 -2.385104910079462529e-02
-1.128869623821954354e-01 2.920275501353828962e-01 -5.868303217859536375e-02
2.107915974046901675e-01 2.990263933131768748e-01 9.421399248854352496e-03
-5.205324770559058845e-01 3.427561430024786415e-01 5.758565615485424991e-03
-5.257895258722805609e-01 3.471873022328518799e-01 6.164426651566031791e-03
-4.572822051067870208e-01 3.498734049383736555e-01 4.424010131963427087e-03
-4.709462324668356459e-01 3.640447721391764091e-01 5.729044057968152824e-03
-4.293040671247891349e-01 3.694056659076550009e-01 9.614159809543538701e-03
-4.648512985573443612e-01 3.712515845787099367e-01 5.820572320739413746e-03
-4.408592394866219233e-01 3.827150505961315896e-01 6.064407148096897116e-04
9.985072306975996403e-02 3.822730128140262029e-01 2.126492184005552774e-02
2.622232322980904903e-02 3.965372886623539928e-01 1.733626642221021072e-02
-4.584762457955274262e-01 3.988180575093012159e-01 7.016993787725120391e-03
3.652351001544973941e-01 -4.092464942510579129e-01 -5.410920233830687071e-02
2.552215347518934085e-01 -4.043369026177748848e-01 8.840683646814723184e-02
-1.713374749809219444e-01 -3.632256288021763480e-01 -6.355137568249812074e-02
-1.733085262541174953e-01 -3.525970371224185773e-01 -5.436344462504814901e-02
-1.226077789600742013e-01 -3.532652046549125679e-01 -8.652866202934188927e-03
2.727732446159886193e-02 -3.381466494050156535e-01 -6.461957707732061962e-02
2.571928226021693090e-02 -3.189012888075066221e-01 1.182140404503377207e+00
-1.069551352801066252e-01 -3.144458861348654044e-01 -5.233066457876277278e-02
-4.734338773317015719e-02 -3.099460616992351092e-01 1.307170948372447516e-01
5.572709032292914172e-02 -3.059398549575098603e-01 -3.777398041031530124e-02
1.981907408375261082e-01 -3.006728566595404661e-01 1.481832556909836729e-01
3.270042230425769525e-02 -2.929804831256890285e-01 8.389546221592271147e-01
1.331960273134765171e-01 -2.656581973332267088e-01 1.272111228835290653e-01
1.392923048362570693e-01 -2.565703382701418622e-01 9.828060055963457053e-02
1.550527121864632429e-01 -2.454114028798963787e-01 8.691154704304818179e-02
1.331378106092049318e-01 -2.377091905736057331e-01 1.029627798723127541e-01
1.878061204503618242e-01 -1.983713628545302754e-01 8.330792273045349583e-02
1.721839581580081602e-01 -1.744265597332636808e-01 6.377302271094351105e-02
-6.148361321921392425e-02 -1.558649496341777962e-01 3.887880552721049293e-02
-2.760043213434649340e-02 -1.487269496869138841e-01 -1.428827544422383959e-02
1.588114556521498244e-01 -1.504816093249844999e-01 5.988731341783407047e-02
-5.249650637167883362e-03 -1.140859575114735597e-01 5.708310154983962936e-02
4.966180417236865097e-02 -1.015406978441760616e-01 4.321652947563053848e-02
2.532538572230154661e-01 -1.004818515108575894e-01 5.487170805257075845e-02
7.127699171954945956e-02 -9.678547772876078259e-02 5.047724457868058012e-02
3.752491578809140638e-01 -7.116045382557310839e-02 -8.781960911285118659e-03
2.294953220649296466e-01 -5.593071160989206148e-02 9.868798489197945847e-03
-5.572635777076973690e-02 -4.741360444919174438e-02 3.975899932372235768e-02
-6.537381502453266935e-02 -4.494554543706889838e-02 3.474235556790886831e-02
1.387601162849440573e-01 -4.307167169102943394e-02 -2.157362515760844965e-02
-6.148361321921392425e-02 -3.231164844561073418e-02 3.209464967678002378e-02
3.353418424802441788e-01 -2.873292752914959058e-02 -7.133929328294695690e-04
3.230665130101459392e-01 -2.635418336144520687e-02 -9.523800260356981868e-04
2.033242458830603339e-01 -1.879800612811121166e-02 -9.079814526425311616e-03
-1.259863877462514825e-01 -9.750106031534819598e-03 2.875564219141015301e-02
-8.189872852894698740e-02 1.691402774528783653e-02 1.684493925254189339e-02
2.120012024313144561e-01 2.293064329369883664e-02 -7.522185415951233769e-04
2.280601469240454704e-01 2.884698584395665316e-02 -4.239408628403291274e-03
-1.369871087672334675e-01 3.131139213816792888e-02 1.602046233356207300e-02
2.238918465900330834e-01 3.718708347295823780e-02 -4.970262508169558981e-03
2.500447987035914199e-01 3.696114519568594048e-02 -4.467022772827395683e-04
5.227049312159555428e-02 5.782617688425126939e-02 1.461711781199499967e-02
-2.484757445991870109e-02 6.810080105106593173e-02 -2.444590472759744070e-04
5.603441489251383828e-02 7.467433825138176939e-02 3.642630123529540936e-02
2.568401474326522105e-01 9.072661951742452824e-02 3.814884877086714698e-02
-1.514855395947219407e-01 9.945366958583275185e-02 4.317182633575273112e-03
6.577841615518001395e-02 9.799847390170608741e-02 3.511578710416270871e-02
1.748775399293669708e-01 1.006050416204435777e-01 -1.234050074464723874e-02
2.295485958414800742e-01 1.018517378095854520e-01 5.076644458548213237e-03
-5.127778570900678456e-01 1.098422939003715210e-01 1.127791986906913173e-02
2.324429546293227400e-01 1.099951778194123569e-01 -1.476865478876127590e-02
-2.605796419820175513e-01 1.178742670990904073e-01 5.365525293651575607e-03
-7.471528151460390954e-02 1.307535147960767474e-01 -3.049023327225069621e-02
-6.408908534246356148e-02 1.408420270938162688e-01 1.381413406241720036e-02
-4.946858687723049708e-01 1.498046185527159013e-01 8.398720827332955760e-03
-4.041567838402016638e-02 1.499818342862322407e-01 -9.159872193878012062e-03
-3.266034247825434778e-02 1.611479572826908235e-01 -3.419577387329578600e-03
2.096588039056694885e-01 1.634990114920332749e-01 -1.914170893780945890e-02
-4.702994542974786030e-01 1.665442588489896847e-01 -7.502214677831937385e-03
1.013572187959052399e-02 1.713336200939171716e-01 -1.873396605578152296e-02
5.481382558206471939e-02 1.844009238485444790e-01 -1.621593229060310989e-02
5.675145324876469666e-02 1.928785286324752879e-01 -1.712925443387771848e-02
8.328940451038334414e-02 2.018818891364524970e-01 -1.865084915861287343e-02
-2.642151260913555011e-01 2.276720806955288001e-01 -1.165137945801972101e-02
-1.225376364619356478e-01 2.880479139707241010e-01 -7.818411508975857405e-02
2.091081774493648293e-01 2.988099403195136339e-01 -2.711873597235467392e-02
2.158044322464915954e-01 3.093219911505805664e-01 -2.804729256692330489e-02
-3.074056427276971801e-02 3.276490908682629377e-01 -2.457739928479565558e-02
-1.223257182432865992e-01 3.314415546973561444e-01 -2.475876857133117379e-02
4.956788854566635677e-02 3.615579782190554980e-01 -1.910801392460456660e-02
1.174654344479377499e-01 3.898393233938245994e-01 2.133932862264372593e-02
1.044607485318708590e-01 -4.022683007124253085e-01 -1.776930675415937591e-02
2.634260113769093525e-02 -3.964623497780837558e-01 -1.731527695450758020e-01
-3.466987797442187130e-02 -3.660245754523735462e-01 -4.018953823575938111e-01
-2.994522366468186161e-02 -3.594177587515690053e-01 -3.949290876902161046e-02
-1.708783711466291544e-01 -3.580473635649257247e-01 -5.843774593642327153e-02
3.459046436428812044e-01 -3.561663758561794402e-01 -1.639203834323263442e-02
-1.849262501893741695e-01 -3.438447567887582546e-01 -3.780135788228957544e-02
3.042785244007058590e-02 -3.156155070303328647e-01 -3.997683642648990066e-02
4.394115765277222252e-01 -3.072625659738357218e-01 3.768072547744397063e-03
4.931275489612664265e-01 -3.011295347706945957e-01 2.148801393483072003e-02
1.283907169767941892e-01 -2.949293406898245706e-01 1.693013647928078569e-01
3.521408923252581369e-01 -2.464870399326470896e-01 -7.397246590614042598e-03
3.814806205539101880e-01 -2.409053187462321111e-01 1.935470780519184947e-02
1.338186008288338447e-01 -2.234971426999329547e-01 1.286025595328450788e-01
1.735512661166889459e-01 -1.923568093242951638e-01 8.357215964743812397e-02
2.148935212807324968e-01 -1.867532749313195461e-01 4.570739299162476788e-02
-3.130252807916502483e-02 -1.724464036789584431e-01 1.382810575963420718e-01
1.998249668931502687e-01 -1.645950927298498456e-01 6.927454453551863678e-02
-6.105161702821740310e-02 -1.524720460127666766e-01 1.117131486476362484e-01
-7.513778414600898181e-02 -9.338733068970239692e-02 6.565587511683569633e-02
-3.504628584334773533e-02 -9.328296311259995366e-02 5.622165215916798825e-02
2.892814463171551609e-02 -7.574835589471634600e-02 4.145602049961116808e-02
2.064513157692188933e-02 -7.205643018039895042e-02 4.430384569171157139e-02
-9.888482503566381476e-02 -6.793433801718880283e-02 4.898052350832822477e-02
4.162862068729676901e-01 -6.802627457043089465e-02 3.331335278378400158e-05
7.830661953075983284e-02 -5.688150819079400983e-02 2.748741751454706825e-02
-1.105054519602170632e-01 -5.465143553357115075e-02 4.774618446260747023e-02
9.598707969354625114e-02 -5.789104283230625536e-02 2.528295029932204827e-02
9.662981721563915216e-02 -5.429491259096011491e-02 2.934948871576070414e-02
9.064950234638073645e-02 -4.805147504320143870e-02 2.731652578143963991e-02
3.863679207234278490e-01 -3.904675949870864415e-02 -1.958384674408687829e-03
-1.257858461072781653e-01 -4.029648980030933053e-02 3.891853632705178506e-02
-1.350117422396781841e-01 -2.967255975449923505e-02 1.996824920351880639e-02
1.791945203908654471e-01 -2.540951392026589289e-02 6.110120870842128578e-03
1.985912749012815059e-01 -2.773387972293185968e-02 6.806820359919090076e-03
3.325830611384679725e-01 -2.639536481015794175e-02 -7.781292319185462332e-04
-1.119710692591300710e-01 -2.230611765074944769e-02 3.217094767399548277e-02
2.307527871853621293e-01 -2.185774652710385790e-02 6.736803269710700363e-03
3.273725876469897877e-01 -2.314167687302177284e-02 -1.331198467455077593e-04
-1.057856621190280538e-01 -1.645157673096324380e-02 4.243703352959005831e-02
-1.090812218735726091e-01 -8.436129135053966818e-03 2.601600781274236024e-02
2.719431453959423317e-01 -5.226921875711952430e-03 -1.075565222201440739e-03
2.929406238963168096e-01 -5.392973253675961004e-03 -2.057949011905332512e-03
2.861814448447078107e-01 -1.610145359953675699e-04 4.128475499857359177e-02
-1.215065652770499216e-01 1.090816414879396991e-02 2.229959364950287112e-02
-1.795342221781055791e-01 1.600367617803580278e-02 2.484364314598579149e-02
2.039669834051532349e-01 2.029503057608383551e-02 -2.308810006076066762e-02
-1.270729687940377051e-01 1.911107865429397673e-02 2.064119207290858460e-02
-9.940465626767387708e-02 1.895106604384506899e-02 1.751755424193777652e-02
-1.983490057937311313e-01 3.799180079479978073e-02 1.997837841809367923e-02
2.316590690600807689e-01 4.682206960161245518e-02 -6.871193201900423729e-03
-1.160221908224825793e-01 4.992676199683945826e-02 1.138289719678608168e-02
-2.191335853358293562e-01 5.722860401687893117e-02 1.526608148854317719e-02
2.170529530215238589e-01 5.398092538985534844e-02 -6.913350395737773678e-03
-4.284422507851986389e-02 6.662751852179647771e-02 2.597787374983216713e-02
-5.338513613267743818e-02 7.028212170713030171e-02 2.287315050785537502e-03
-2.342927208353813573e-01 7.608829357199067833e-02 1.147635916175820427e-02
8.895007672033920787e-02 8.086940674421461139e-02 -5.404139202667885590e-03
-1.778191047180285866e-01 8.979376249465280402e-02 7.042042334916574602e-03
4.970997810285754381e-02 8.979376249465280402e-02 -5.373100955817634687e-03
-2.499273581357932261e-01 9.193107379136321311e-02 7.486228386933522702e-03
-1.792607919700374974e-01 1.018595145638488131e-01 5.646593777694910304e-03
-1.263903740134947051e-01 1.020003209478594491e-01 1.114593938265585546e-03
-9.391216128899318449e-02 1.133582116346756180e-01 -1.592335517345439769e-03
1.868750454778671521e-01 1.119139151894786438e-01 -1.337677798429632268e-02
-1.169471852092885122e-01 1.163543829590458906e-01 -9.709014049990147624e-03
-2.737372448207601172e-01 1.205367449677969827e-01 5.342216879791569784e-03
-2.716479555781073363e-01 1.183215482988430184e-01 5.270156456174433963e-03
1.577283268078514267e-01 1.328191267750712667e-01 3.349045316506255032e-02
-4.803517118323752944e-01 1.359737789249597928e-01 8.780101805952737065e-03
-3.516674825023652917e-01 1.393999104964052105e-01 5.616469673122776937e-03
1.903119494274862211e-01 1.395791293332923899e-01 -1.602013721426549450e-02
-4.432507338380053397e-01 1.519432259751368752e-01 6.300158698435930765e-03
-5.250655034503140528e-02 1.520024942689923997e-01 5.788211024993586765e-03
1.846848577423662596e-01 1.506051529234006536e-01 -1.854570773730504149e-02
-4.328182925866179698e-01 1.562275105965818811e-01 -5.184572732516502108e-02
4.214566424215707044e-04 1.632290638554070306e-01 -1.223455628619423731e-02
-4.710259665985283561e-01 1.660781249116289326e-01 4.188920968642805345e-03
-4.085097586455889163e-01 1.664102276675569481e-01 3.853940324669588233e-03
1.435941438774811750e-02 1.708756163996499322e-01 2.384069211777959524e-02
-3.962509840603981037e-01 1.719151092195175812e-01 9.507878136947145453e-03
7.056568088272155426e-02 1.737713968962569799e-01 -1.558010436901726727e-02
2.664666965171327839e-02 1.804549280375551679e-01 2.201875247082675860e-02
-3.611617089967718575e-01 1.867043159806214270e-01 7.748021110561838232e-03
-3.494323180475601975e-01 1.916270014293213197e-01 -2.675096307579735190e-03
-2.782480782769742866e-01 2.220140795653072208e-01 -6.008731589212319354e-03
1.629156548441273167e-01 2.219714252464688731e-01 -2.269837376077496818e-02
-1.253459647696788248e-01 2.866489819253966176e-01 -1.869842944473326185e-03
-1.007194750415060097e-01 2.975351417683746447e-01 1.811971219883861881e-02
-1.833038714684468162e-01 3.036116147586914171e-01 -5.105581395980758261e-03
-1.309527355297228357e-01 -3.512012570191599958e-01 -6.395579233156531429e-02
-1.848174665499232872e-01 -3.469783910819539963e-01 -4.737263245655845556e-02
-1.060705865955271221e-01 -3.121220505654446753e-01 3.779482591331196489e-02
1.818309838863351180e-01 -2.557298302042473881e-01 1.149789592344423877e-01
4.382980055253950513e-01 -2.543904462980993708e-01 2.691564798436056616e-02
3.848767257350370063e-01 -2.450660590215389123e-01 -1.176749756912109403e-02
2.081791424152947545e-01 -1.766243176199301101e-01 6.451020514733690758e-02
1.389010289545825894e-01 -1.616348299791425247e-01 5.474817603462123899e-02
-5.933100742622798851e-02 -1.513204088615332232e-01 1.080867088535803489e-01
2.072579532982424255e-01 -1.314980219349043966e-01 4.030929792838467557e-02
-3.776591605920542188e-02 -1.157147162112049793e-01 7.835510078322736882e-02
-6.470110609943202640e-02 -1.065004112478344228e-01 7.096084434981592137e-02
-8.201857491139290246e-02 -8.853805308806410312e-02 6.343885720740642664e-02
-1.066286142481449872e-03 -7.574835589471634600e-02 2.427927183008881176e-02
-9.589686445779957435e-02 -7.260162778610372569e-02 5.566633705601849863e-02
6.535834575805045399e-02 -6.161799339821123073e-02 2.909801075195886724e-02
7.595064756867418720e-02 -5.636344085280341198e-02 3.918757766927010756e-03
-5.680493598319784343e-02 -4.720734371679792540e-02 3.667542240889536120e-02
1.550556151757598033e-01 -3.836043147756558469e-02 1.397688554062702371e-02
-1.378837009344351938e-01 -2.863291964761902411e-02 3.462303660647862019e-02
3.823361393455240731e-01 -3.851025182674510522e-02 -2.373197614846620732e-03
2.267229672867127899e-01 -2.334251744335326048e-02 -9.515794283014878188e-03
3.174096068403586268e-01 -2.770686728482772698e-02 2.744148618987142865e-03
-1.494272809538742808e-01 -1.115292645399392976e-02 3.067963849998172829e-02
2.373942774817051349e-01 -1.527828838888297888e-02 -2.371787004769123665e-03
2.750755493061030621e-01 -6.111704417582975932e-03 -2.559398575439841231e-03
-1.761856240245211203e-01 1.161134180417428691e-02 2.323390510097777389e-02
-1.874695041906731807e-01 2.542863102677457229e-02 1.973466395305976950e-02
3.031033617502195687e-01 2.342075555670489889e-02 -6.702802794346219770e-03
-1.420146547034431550e-01 3.743346518757433711e-02 1.589355669112233610e-02
-2.235272204065910928e-01 6.423534177854631211e-02 1.187444759360921191e-02
3.018608823312909362e-01 6.899159290304954228e-02 4.260662718119867520e-03
-2.416099799644619017e-01 8.378999037373734138e-02 9.070162188433161105e-03
-2.592955007437247605e-01 1.047552950604558469e-01 7.615261786423421948e-03
-1.403441412816119893e-01 1.160214553958475170e-01 4.649387974029198928e-03
-2.480504970963955946e-01 1.144662223727877653e-01 7.284399258640515684e-02
-1.324659383153484193e-01 1.197063407909643717e-01 -8.709367219923873360e-03
-2.388189911333279125e-01 1.339901763545605640e-01 1.715710286722702937e-03
-5.918146424786994986e-02 1.347230176142711622e-01 -7.187846701514071131e-03
1.859960673943702458e-01 1.342150541653424067e-01 -1.472912884843559540e-02
-3.451827928576217119e-01 1.379510186964162666e-01 5.741974567837395543e-03
-2.187400341382197411e-01 1.420523139334524676e-01 1.225390741800599578e-02
-5.371960757514350482e-02 1.440972468158830955e-01 -2.398971259189785696e-02
-4.180505310427031773e-01 1.623280208273489844e-01 4.620915294500335321e-03
-1.571307945777379589e-01 1.656390917845798894e-01 -6.371847977146406251e-03
-3.757617444496400005e-01 1.810578621521848341e-01 1.962533371592686501e-04
-1.077607148099026246e-01 1.855912974840820961e-01 -1.176302344433771511e-02
3.895797265133779663e-02 1.870351226108388776e-01 -1.557961906000539590e-02
-3.054164489709679797e-01 2.106371004816628423e-01 -1.018543262409982511e-02
6.392160143376271475e-02 2.510990815954274313e-01 -8.285804965640460734e-03
8.131474411535964675e-02 2.581184860401752323e-01 -2.494535183919066937e-02
-1.485659169540821944e-01 2.768739553051970947e-01 -8.261912865406886852e-02
1.590275322068182562e-01 2.881759358420442063e-01 1.032696912194924939e-02
2.153510167020366572e-01 3.072327543347708190e-01 -2.766590486236880989e-02
-6.222544467324082201e-02 3.137516775108281641e-01 -4.565359144058923901e-02
-2.184545200183744817e-02 3.310128905759915363e-01 -2.975573566861228203e-02
-6.485539485801591897e-03 3.371747311187900942e-01 -1.963532893270125354e-02
-5.330636312581937125e-02 -3.166508021703424713e-01 4.361359780259345831e-04
1.757320387517685434e-01 -2.339279794722723960e-01 9.596569076736778670e-02
-1.462958970129258351e-01 -1.889947476033148333e-01 1.380973112615844489e-01
1.748835812854706295e-01 -1.906668675995449036e-01 6.398783270621034858e-02
4.005715412189749247e-01 -7.166723897840134028e-02 4.935897108276888351e-02
-1.071179772878097236e-01 -6.078682332891329615e-02 -1.769673015908608885e-02
-1.193678075276002892e-01 -4.483163366155234336e-02 3.763653337283674738e-02
1.427481174458888891e-01 -3.758163666993520613e-02 1.822097615875329160e-02
3.775604865751687744e-01 -3.470462053872874070e-02 -2.607104594145622737e-03
-1.681780418866350990e-01 7.264018341352152831e-03 2.872852949265826406e-02
3.081087429708541103e-01 2.533366036107367186e-02 -6.907516371352899649e-03
2.437518240411762627e-01 3.971382163088635342e-02 4.424326628851542320e-02
-2.463390672173169371e-01 9.251474276474956626e-02 1.286143561718009615e-02
2.388451444566248028e-01 9.449528176528747270e-02 -1.354141152226251074e-02
-1.774088024875861147e-01 9.949208203870929523e-02 6.476177322483265414e-03
-3.382399801182126020e-01 1.370579291670366573e-01 5.221773461851362576e-03
2.016098345555149274e-01 1.487231783916702077e-01 -1.760814318022111899e-02
2.668538128632179651e-01 1.679500839265050949e-01 7.258224573620642925e-03
-1.262040334843234912e-01 1.780966862219996172e-01 -7.566841664780318832e-03
-1.040288828395868753e-01 1.868884247463256931e-01 2.009308893448397484e-02
-4.223141972984962439e-02 2.101835153977725246e-01 -1.385763771472300551e-02
4.218593983077456588e-02 2.441131996747390176e-01 2.026829167224762293e-02
-1.495495203410106000e-01 -1.855802222484593811e-01 1.340151865565295808e-01
1.746882179517290079e-01 -1.792523597850993466e-01 -1.971813495242124865e-03
-3.448863729131217831e-02 -1.162892828472149032e-01 3.973977044236204348e-02
-1.018443833939238485e-01 -5.053915268539773548e-02 4.174209401090235583e-02
3.075582734328898282e-01 -2.269978637792897588e-02 5.899393290209707782e-04
-1.630361417098919186e-01 1.884714032778031512e-02 2.346277682436012299e-02
2.931577988793677703e-01 3.607253319148826659e-02 -1.041432525426756392e-02
-1.249729698746556705e-01 4.295119016703049381e-02 1.383683714257673628e-02
-2.360795880070156935e-02 7.972463316776662312e-02 2.384144803479118621e-04
-5.608287624005563882e-02 1.419588750526822041e-01 -7.055899677118051758e-03
3.320087412123395865e-02 1.623065758383197554e-01 2.650452752360914210e-02
6.163357511305066205e-02 1.798449241463224713e-01 -2.342390663141398488e-02
3.794471169808233402e-02 2.424754270098387066e-01 -2.757599002186732554e-02
1.617284118805734430e-02 -1.674953507516388218e-01 1.243623493936571317e-01
-3.759142286473098060e-02 -1.087044730186385727e-01 7.647074643938658878e-02
-1.502800144449468744e-01 1.709088998997400008e-02 3.306921407062676788e-02
-6.238118612604287572e-02 1.363108305245099294e-01 1.169419828201767424e-02
1.748900933965953364e-01 1.431382905344851242e-01 -1.682090442244285611e-02
-1.799811648410208909e-01 1.602879189589304365e-01 1.423378541244300216e-02
-1.430114392309613791e-01 1.739183893347952814e-01 1.385275059741614828e-02
