-1.562505207183632547e-02 -3.759442673763128684e-01 1.490508651884470681e-01
1.874725120587677207e-01 -3.663592999171251807e-01 1.118161898323004888e-01
1.816781454228296455e-01 -3.599325931396338274e-01 1.116106139954845256e-01
-5.231483744413928383e-01 -3.532780186250056298e-01 -1.866564559960147418e-01
-6.868381006681999364e-03 -3.503101411357487649e-01 1.424944343254510859e-01
-1.765714457942984053e-02 -3.395300279418164147e-01 3.933480750797106462e-01
-4.074888675380337055e-01 -3.366318466669045995e-01 2.108152717962556155e-01
1.660778732389554535e-01 -3.367972057959095489e-01 1.196930126503373965e-02
4.132845955990624431e-02 -3.334586952682381256e-01 4.147943561182419747e-02
8.494379457274306433e-02 -3.334192665349748896e-01 1.474684516379631549e-01
3.622782890667634870e-02 -3.316666394576776034e-01 4.117669180274135393e-02
1.107700427016829192e-01 -3.260084615830409760e-01 4.001067920857707960e-02
1.262096305050338652e-01 -3.257217674130862828e-01 9.290619073326143729e-02
5.889181941120295860e-02 -3.240622109990278221e-01 1.181903730339660952e-01
1.390806219951185585e-01 -3.198789652682013651e-01 -1.245351772857693977e-04
7.743870419025791763e-02 -3.178280819904631960e-01 6.773353964894525403e-02
1.097976197465047737e-01 -3.168442636613444940e-01 1.195156888614714447e-01
1.347504603930302913e-01 -3.146606158704816636e-01 1.043131851389662718e-01
1.572986071323599286e-02 -3.045897485568472285e-01 1.241320916392555929e-01
-4.650740833710629851e-01 -3.022364555849137990e-01 1.816933915164780367e-01
1.123129422832206264e-01 -2.999001595342302151e-01 3.600962147388017676e-02
3.087271593497619218e-02 -2.896574671917392929e-01 1.213468521214117607e-01
-3.617232805073162805e-01 -2.869556489619770057e-01 1.724000192597320569e-01
1.081891282986987973e-01 -2.830824571212978147e-01 7.267833112232217896e-02
-3.443019905984182061e-01 -2.799148584430049547e-01 1.536618410196609608e-01
5.440693632552495024e-02 -2.813487711538162350e-01 1.161133706581235908e-01
2.335773969704869890e-02 -2.760271882889907546e-01 1.666981367090896171e-01
8.668056676378901870e-02 -2.789977022157724695e-01 1.091863423506202885e-01
1.287666933202840924e-01 -2.757476080817428676e-01 6.257790505919801072e-02
1.465684513601646921e-01 -2.775687383485833659e-01 9.134403961684582629e-02
1.159119428784261135e-01 -2.722886020490932757e-01 6.737901593230828656e-02
2.158122793630792152e-02 -2.681223679682178673e-01 1.020515651752925690e-01
1.293629830136319991e-01 -2.678314761184051318e-01 8.278573470310993110e-02
1.292722842129069571e-01 -2.595690576598294608e-01 6.263710512176053763e-03
6.691348497013581420e-02 -2.535504831941514103e-01 1.052680307057240333e-01
5.738799249641358263e-02 -2.471327314670238862e-01 1.036417496795976195e-01
9.232531176219888058e-02 -2.445668444211564208e-01 1.273809009056824960e-02
3.542837039172404973e-03 -2.424264400971821720e-01 8.834239565223159230e-02
3.748258718573770770e-02 -2.376885851205481071e-01 1.046693725639015887e-01
5.878911635744080155e-02 -2.161587735007777511e-01 1.026289342811465555e-01
9.102006500712839232e-02 -2.163240000714714006e-01 9.078596979950527557e-02
1.128376772133667799e-01 -2.135022754847812620e-01 6.497782595225737312e-02
6.727565249967448757e-02 -2.121908319249165009e-01 1.037507596976792318e-02
1.361362847158729406e-01 -1.918848722786394290e-01 7.874226719425399257e-02
-4.351606975317869053e-03 -1.902344623880611874e-01 5.128976320798932231e-02
2.372045644077861587e-02 -1.826160122058153867e-01 8.847967477221624355e-02
3.882977036726799336e-02 -1.751806103227833977e-01 1.377234576634328231e-02
1.313972723779904539e-01 -1.737257092126818503e-01 6.812083362543965015e-02
7.997411227453916915e-02 -1.713258440873758892e-01 5.399902352360667207e-02
-1.098815434393968574e-02 -1.664936812365974406e-01 8.551067149976405990e-02
1.344807962251307332e-01 -1.638386855481291093e-01 2.072899571983682215e-02
-4.481155064182858472e-01 -1.643580784692327823e-01 -2.567677481254154043e-02
3.061489910177339971e-02 -1.629787061391737568e-01 1.733348515464933114e-03
9.467014372168919972e-03 -1.611065409224800293e-01 7.288480994145717096e-02
5.390566068726182491e-02 -1.589908808166164422e-01 7.655248088958946373e-02
-8.542072024905353334e-03 -1.558649496341777962e-01 8.238638501719187934e-02
1.286727776935817913e-01 -1.556718858181096454e-01 4.981139925242797362e-02
1.156153672151557094e-01 -1.521327851080280791e-01 4.926526194484939086e-02
3.021848414445231154e-02 -1.468880418776569718e-01 1.120210460816415884e-02
-3.383672016626551593e-01 -1.356277435653653329e-01 8.118464623017146442e-02
6.706389119936581600e-02 -1.307681853302501140e-01 6.584930432293173430e-02
4.223685983221966977e-02 -1.240499533687919598e-01 3.942122726319764042e-02
3.836042761126705336e-02 -1.190669980745511086e-01 6.892603816640605584e-03
5.361089078447536967e-03 -1.140195016114049498e-01 6.257348780267912858e-02
8.188984983275966745e-02 -1.151482503608860369e-01 1.945679077215414082e-02
-5.017754001599457059e-01 -1.111429273412361807e-01 -3.290367554179841197e-02
1.026178995427451252e-01 -1.040991910820128624e-01 5.465654701627617462e-02
1.104758208135178388e-01 -1.039312838876905454e-01 4.687235992237136911e-02
5.082445138564179593e-02 -1.018928610912152172e-01 5.855531356234350282e-02
1.467878243995504421e-02 -1.002659582078421069e-01 8.368551477857026633e-03
1.926295560549250163e-02 -9.362540541680992867e-02 5.916944605280417130e-02
4.386943824527009261e-02 -9.408043391342336970e-02 2.175916694973304213e-02
9.379697041721553330e-02 -9.146066927836020433e-02 5.131225592787530543e-02
6.692705840657650618e-02 -8.953082646754663421e-02 -6.875857492067892702e-04
1.015941642902709746e-01 -9.171577038412005722e-02 3.274490485862360106e-02
9.534434217145335011e-02 -8.791606003400874447e-02 4.974617300808887449e-02
-4.892775604832245717e-01 -8.794475154405610728e-02 3.788889357018142973e-02
3.868775926924698100e-02 -8.649618377549478376e-02 5.523941168647196476e-02
5.374634934221670518e-02 -8.647594653996858172e-02 5.256206172471642596e-02
8.248912097457430925e-02 -8.448291760076528933e-02 4.822113373193859936e-02
9.226529049701319429e-02 -6.474698815051120604e-02 3.506399751111329705e-03
-2.405883631095825648e-01 -5.296679614127317720e-02 4.550350344461133456e-02
-5.433163924020485425e-01 -3.232558179699923651e-02 -2.484623189866530871e-02
-9.754737079123551591e-02 9.303233122946067768e-04 2.651641990809334992e-02
2.439201189612066889e-01 2.453772134518091008e-02 1.670530935797790231e-02
-9.490596436804465963e-02 2.560396148653007464e-02 -9.397601582646407034e-03
-7.025840835267921358e-02 2.863801503053166331e-02 -4.136862639867209396e-03
2.458528821593556901e-01 2.560396148653007464e-02 -7.680125771688299519e-03
-4.673426996549825269e-02 3.079123332459892531e-02 1.142759455495739179e-02
2.395832883296533655e-01 2.847859156813300693e-02 1.585156688399131514e-02
-5.891266313084232709e-02 2.946500214867279685e-02 1.461604142819312828e-03
-1.902272643636671728e-02 3.156755371041823632e-02 6.105506872341862068e-02
-1.131195533926163295e-02 3.436529997146306470e-02 -8.403423505636760035e-03
-1.967962583867663082e-02 3.468809418819707169e-02 -1.197224838405598624e-02
1.916507779069625064e-02 3.553911854678855342e-02 -1.516659788628668334e-02
-9.475202747615668608e-02 3.692149553190386679e-02 1.349771472713126585e-02
1.819775468157962955e-02 3.853617359323421171e-02 -2.266548789208878544e-03
2.619144954634426009e-02 3.718708347295823780e-02 -1.739339522141011146e-02
3.956430511846840276e-02 3.766393990483359044e-02 1.450818904746280051e-02
4.757541791901240269e-02 4.623233240330848481e-02 -1.633351260044613520e-02
7.211956474808407791e-02 4.453788369597379282e-02 1.267567758956712753e-02
1.287666933202840924e-01 4.535815452634203021e-02 2.106120729285545709e-02
1.383289831448195062e-01 4.515560542666480215e-02 -1.313416110545146537e-02
9.789716819151397798e-02 4.685329444827589923e-02 1.241369408961852903e-02
1.143975239756627876e-01 4.520509386288611847e-02 1.688287273319918555e-02
7.448965936080165218e-02 5.042494558813399863e-02 1.098135670170195984e-02
1.806999164890583653e-01 5.070072579045775685e-02 1.126273211124627013e-02
1.466771173108603332e-01 5.038494243552176649e-02 1.116345642311715458e-02
8.300318545757634503e-02 5.186541257100431984e-02 9.584779930074754928e-03
9.500139713860812629e-02 5.233201782680525771e-02 -2.053958098573919686e-02
1.371222811074917503e-01 5.407913636983263661e-02 -1.382951347561687909e-02
2.035842595730280868e-01 5.091935863190691358e-02 1.075327992531879481e-02
2.141229737704206937e-01 5.259689879019932568e-02 4.995441580917876941e-03
2.294038386725028578e-01 5.297955044883911196e-02 -1.430559925762384631e-02
1.133473479828388808e-01 5.452824392854104668e-02 1.156788150837255967e-02
1.282094762936845100e-01 5.558523444550122344e-02 9.744659369008963276e-03
1.367876527466853342e-01 5.613025530679093683e-02 -2.172444005885267038e-02
1.564078589737665226e-01 5.831328449220103682e-02 9.011650441728764199e-03
1.780738096040520857e-01 5.790635993389079555e-02 1.046811110113343019e-02
1.644078698017304441e-01 5.798778019443585896e-02 8.760616428735283970e-03
2.211645273754980212e-01 5.833478839603529337e-02 9.334432754549775238e-03
1.956113956179455493e-01 6.228384777688592000e-02 -1.787976448253435907e-02
2.157257376988037101e-01 6.213909410093858277e-02 8.694023454657780550e-03
2.390902509042588664e-01 6.405270588296765877e-02 7.829944852892173693e-03
-6.919646348432870187e-02 9.218075473506073814e-02 -2.182503635468180381e-03
1.704263942868652071e-01 9.123299226661760186e-02 1.565565522760468476e-03
1.741278625583223272e-01 9.129385126020880814e-02 1.532728583851688262e-03
1.832380706442958140e-01 1.002383558739656649e-01 1.821385362128365160e-02
2.011326458824962415e-01 1.023651214205765353e-01 -5.917550386097928956e-04
3.741997676793618055e-02 1.030032276738063329e-01 -2.777359726881278770e-03
-1.123939249568009363e-01 1.114846030052587533e-01 -2.304243452970628544e-03
-1.142235535757517850e-01 1.124773763847412844e-01 -5.728271762942498298e-03
1.945995861593383669e-01 1.157765465513570513e-01 -4.090604535860712862e-03
-1.160789560321058844e-01 1.275484904878915193e-01 -1.291410842612636216e-02
2.576533779311103792e-02 1.254633187936285699e-01 -9.188503564891946362e-03
3.831237136953342254e-02 1.296286544237273131e-01 6.618044912844706952e-03
2.161369422097032256e-01 1.312476332658245315e-01 1.812216526077626080e-02
-9.740261362225829944e-02 1.356334280963282235e-01 -1.575240205915077324e-02
6.084545274861911934e-02 1.414351813508117062e-01 -1.172938894526309034e-02
6.789069393469478186e-02 1.495709035211802707e-01 -1.279628432677872886e-02
-8.201084668313043946e-02 1.491827727856731289e-01 5.723095848429573867e-04
5.029979491466581715e-02 1.501300050208710379e-01 -1.384861695533243751e-02
-1.025509082213709317e-01 1.590585437224660281e-01 -1.972872112719521384e-02
7.438985929633605554e-02 1.585700810740006683e-01 -1.415961839881073672e-02
2.402163753738144336e-01 1.596933507466143931e-01 -1.206800587680138120e-02
8.725575213992907767e-03 1.604737951687854880e-01 7.621981406133833924e-03
7.693585936859125007e-02 1.624045511590769542e-01 -1.528707869414019406e-02
2.291016139489796821e-01 1.626558817173151816e-01 -1.261572610203138579e-02
4.665065890971700074e-02 1.663655113305426980e-01 6.736815993443502973e-03
7.032434047525600029e-02 1.672875869439947871e-01 -1.924044863533245359e-02
7.950633870194177832e-02 1.662961096902228209e-01 -1.670379422537408495e-02
3.426980185573025306e-02 1.675666074605949296e-01 -1.623072718940532164e-02
1.095114791528679493e-01 1.699072337494479112e-01 -1.634076051875868116e-02
2.216009172800244842e-01 1.694540021543877450e-01 -1.342594270887263221e-02
4.333022759822621056e-02 1.708611822724187268e-01 -1.744848022214675817e-02
1.884958550153909562e-01 1.709089621792942992e-01 1.571475661888203923e-02
-1.047731465278892715e-01 1.716749724742341610e-01 -2.014511239109881280e-03
-9.238110904215225683e-02 1.739716483185382023e-01 -2.165584668066594318e-02
8.493689016576745632e-02 1.740476484170209448e-01 -1.790859938775772250e-02
2.010215476975251159e-01 1.757854584208543014e-01 -1.611279002282627396e-02
-7.681308357722096969e-02 1.761127301627702368e-01 1.216887897256269330e-03
-7.000584828387830527e-02 1.761846062249012024e-01 -4.858824783723737252e-03
3.880454574405597934e-02 1.762045194289997840e-01 -1.924873759457719144e-02
8.882964189411696188e-02 1.790964704632801718e-01 -1.979095861406931361e-02
-1.059774163309415151e-01 1.806355019149579466e-01 -1.361545157085151947e-02
-3.283691484073848754e-02 1.796193393578803255e-01 1.211039288467925887e-03
-2.544084347521477496e-02 1.802742363305423756e-01 2.190945464463680756e-03
3.421213436564989746e-02 1.814725634647584018e-01 -2.145412796092635577e-02
7.860609818332679744e-02 1.781150676411675515e-01 -1.998298213001297244e-02
-9.949668767472205633e-03 1.819137764395934165e-01 1.318808759843661171e-03
9.082305403081304684e-02 1.826671200514528304e-01 -2.130724895711475636e-02
-1.173367742188041740e-01 1.829074924559563609e-01 -2.532049565448038150e-02
-5.419605088604549648e-02 1.839740860861356631e-01 -1.097751448532587916e-02
1.247509972718365348e-02 1.836024514960356291e-01 -5.241468932521442872e-03
2.123530145499595914e-02 1.833396325508174496e-01 -2.138357946866200482e-02
3.250651046516436077e-02 1.854937345669600834e-01 -2.202002171946489117e-02
8.458209779822545293e-02 1.852796381654978897e-01 -2.077205827721762682e-02
-3.852002637336507385e-02 1.855664354363613933e-01 1.399809160656568250e-03
-3.249298906826604549e-02 1.855980726866600095e-01 -8.499516327546436517e-03
9.327843376151340182e-02 1.863114131459072120e-01 7.298460469937426316e-03
1.287865446899088238e-02 1.897988161145790220e-01 -2.349437706955057742e-02
1.160565431290629806e-01 1.935222317921824753e-01 -6.183366677381893668e-03
1.205903847369316634e-01 1.935385511931745073e-01 1.022477714897342821e-02
1.371610399375593758e-01 1.955331708321134676e-01 1.234972841021017911e-02
1.761725085331442286e-01 1.993507912829524942e-01 -9.478108346362510567e-03
1.804581053265717494e-01 1.992908160114366667e-01 2.378103856703967650e-03
1.367972247654469786e-01 2.013229054663717710e-01 -2.354596112482831155e-02
2.011628526630145353e-01 2.013422884372251254e-01 -9.350312524435022699e-03
1.575204100068814395e-01 2.032056458905675544e-01 1.415226545055912714e-02
1.625672176693696569e-01 2.027816949536049851e-01 2.450916800533343206e-03
2.225618851963567235e-01 2.018672193500011813e-01 5.821846984587142164e-03
1.778586745594257779e-01 2.050994622981081039e-01 -2.232782594322695047e-02
2.302834444293611893e-01 2.080112676216820666e-01 -3.623532977530437293e-02
2.178979582843339757e-01 2.083496153469427681e-01 -2.142314870335940494e-02
2.362583456158773854e-01 2.151477357840153037e-01 -3.756403118681061332e-02
-5.443335064624690856e-02 2.355393870142017676e-01 -3.376752143045828186e-02
-3.781844447363916228e-02 2.365998535046584528e-01 -1.335994767517942718e-03
-2.701175298050579460e-02 2.406243827507465738e-01 3.955309043270127667e-03
2.335773969704869890e-02 2.432260016258619428e-01 -3.240672909067477542e-02
9.248419158180802568e-02 2.512847810608673793e-01 -1.736175527474770330e-02
-1.042841105201738200e-01 2.502300882213032152e-01 -3.572531079504613627e-02
-6.767969080646006608e-02 2.530875740946437191e-01 -3.627352298378957313e-02
-6.146552838048804229e-02 2.514122726989422851e-01 -1.482533715821357685e-02
1.162500234427203405e-01 2.506895058708910051e-01 -3.135634428782124034e-02
-8.145355119736066851e-02 2.517036653245977584e-01 -3.643043629480584300e-02
8.249712380993240446e-02 2.536530973080822760e-01 -3.198707623645163228e-02
1.375685568674605563e-01 2.534748800228805443e-01 -3.101902370790014102e-02
-5.106988447991384766e-02 2.547734212404447196e-01 -3.607371055206044785e-02
1.564022099135137511e-01 2.556113075975155469e-01 -3.131104752867817226e-02
1.796688845337577334e-01 2.568977123652445571e-01 -3.081461771441165384e-02
-1.249068668242113780e-02 2.589926050023366733e-01 -3.649769050012872246e-02
2.890405766647106967e-02 2.606441637316129212e-01 -3.632402644166585204e-02
2.186226071800920490e-01 2.602562686553258620e-01 -2.942215360361235404e-02
1.074703650402739075e-02 2.600796420698597844e-01 6.651442497651450896e-03
8.679394026469529344e-02 2.606624273211707865e-01 -3.371713975264233748e-02
5.378805039116596465e-02 2.650689601630434322e-01 -3.503972034604593833e-02
1.107479172156929093e-01 2.650050965143959103e-01 9.990258852644682414e-03
9.351616504715078160e-02 2.685461708704458550e-01 -3.494006148351072594e-02
1.070022764314259439e-01 2.697726592814639890e-01 6.583483195950677776e-03
1.158552168983878750e-01 2.707270791228750251e-01 -3.514290591845794370e-02
1.467521242775498835e-01 2.715762771225107008e-01 -3.450719226977670695e-02
1.672528777715315274e-01 2.763027762704761692e-01 -3.318051679593421455e-02
1.834561086782187100e-01 2.781423321425883222e-01 -3.302192015404634140e-02
2.027013585310223076e-01 2.767634311309695172e-01 -3.273970133392729159e-02
-1.720966066819729634e-01 2.831345370612181611e-01 -3.951773336042990747e-02
2.279606606962605864e-01 2.814710775413268307e-01 -3.264182493681547920e-02
-1.829798350956143294e-01 2.892896613162438402e-01 -3.988381055931117247e-02
-4.217951322429652761e-01 2.980055175716972427e-01 -3.960512568033939390e-02
2.898815793102719196e-01 3.259393832264266821e-01 -6.916314178036417001e-03
3.005439451598640455e-01 3.342895552870875919e-01 -3.758428422083030102e-02
3.637058524685705674e-01 3.845556080199292182e-01 -4.169730558374326601e-02
-3.524630192583785848e-01 3.944628394626056300e-01 -8.459386560620564890e-03
-1.506434361216385173e-02 -3.753402138803877408e-01 1.511424290388430069e-01
1.833993826981804576e-01 -3.600174746449741336e-01 1.076558958346121864e-01
4.484268502173510001e-02 -3.370474464302548046e-01 3.546443660071389031e-02
1.649836031924918622e-01 -3.369879719345816871e-01 1.103256077415093878e-01
1.016444566183546672e-01 -3.196713642239932263e-01 1.221080275177822277e-01
1.700207615766181554e-02 -3.029638030390557901e-01 1.119083447818373517e-01
-4.876702949599526216e-01 -2.932768687810704544e-01 1.636286113967337363e-01
6.120283426877697747e-02 -2.879324858867001735e-01 1.126125005825491937e-01
-4.216582406057983734e-01 -2.817405546072349054e-01 1.567146645033134222e-01
9.923411245133612058e-02 -2.791486419462474999e-01 1.060361052889517847e-01
1.424665274841223628e-01 -2.764777687178248122e-01 9.874481986695671232e-02
1.446159164511310047e-01 -2.709359328544120316e-01 1.560737186178485190e-02
5.696423451828568768e-02 -2.499955196728167184e-01 1.242510829760991031e-01
2.346373923552817677e-03 -2.477451214078601194e-01 1.112182629902482012e-01
1.418132764332256934e-01 -2.442001292172759908e-01 9.072866784436299514e-02
7.326797162197004609e-02 -2.130365244936531788e-01 9.155793933858090428e-02
8.717485953590635439e-02 -1.790509300667176007e-01 7.974721096587780722e-02
-3.823470187505509377e-01 -1.504939519766373135e-01 -1.757858449912401769e-02
9.645061647095407031e-02 -1.408475658332107028e-01 6.543297572421929997e-02
1.222500315636932677e-01 -1.376165306386067932e-01 6.510149149102352484e-02
1.544761942040000224e-01 -1.230461040059646627e-01 5.567270569831249405e-02
3.697558402805163624e-02 -7.926468603265561519e-02 4.858141856357547916e-02
-2.526315711247110740e-01 -4.713054826844734896e-02 4.357783949195562223e-02
4.784159053388209459e-01 -3.724935716959210802e-02 2.602525545595396270e-02
1.038984316592097418e-01 -3.289083989381515888e-02 3.297307276315385172e-02
8.254890686224945762e-02 -2.576421050392114012e-02 2.602663483692653837e-02
2.773191677364947316e-01 8.158286166832260516e-03 2.026506847690270202e-02
-7.313040627702133145e-02 3.222946154487828230e-02 1.609563404589364408e-02
-3.720136310019425685e-02 3.495350538483636693e-02 -1.160666676076985322e-02
-7.777133145691352521e-04 3.718242920336123358e-02 1.214073391503833754e-02
3.365425043610380945e-02 4.489072446327073418e-02 -1.189455122802938504e-02
1.740735688125596148e-01 4.804584793159945993e-02 2.289600932240564574e-02
-8.362039732973379491e-02 7.988223027120949782e-02 1.357224175552351709e-03
1.863685915343723243e-01 1.012179912519275415e-01 -7.834675331881130579e-04
-9.124156805449634700e-02 1.017524074483126817e-01 -4.819456399219441099e-03
2.137827748085316670e-01 1.122680520824861500e-01 -3.338553801981704750e-03
2.221861442303773582e-01 1.433471435183000520e-01 -8.944216280888650505e-03
-6.444834988270567444e-02 1.449804386580184346e-01 -1.614499428337521497e-02
-7.835947459183155439e-02 1.495366740194605248e-01 -1.703337776375587337e-02
1.861487489395353689e-01 1.678049178469225577e-01 -1.507568100217448158e-02
-9.512980838056064870e-02 1.686390925712767941e-01 -2.154790800394465120e-02
-1.135453525087387200e-01 1.814934782205424313e-01 -2.238406716417391112e-02
-7.909793230154082977e-02 2.393088151545300357e-01 -3.118770538530321774e-03
-9.436632219556480294e-02 2.394865022064865678e-01 -8.954434760417365191e-03
1.295749012322810201e-01 2.661004994842326443e-01 2.483701367668672902e-03
1.586539880976038652e-01 2.701224364788996635e-01 -3.385515345049829039e-02
2.100334464432663806e-01 2.686379012218703122e-01 -3.065810576183044395e-02
2.907365488876945681e-01 3.255905486658714487e-01 -3.688110639602928953e-02
-1.772965666446474076e-01 3.784741861859902690e-01 -4.406896969396815848e-03
3.826898344842534494e-02 -4.202544899108283660e-01 2.555061332310453251e-02
1.789002200435301781e-01 -3.576311304674215097e-01 8.473445937045719252e-04
-4.117611458873235986e-01 -3.374419694221071908e-01 1.936415197133440347e-01
5.205116051136475519e-02 -3.099680221928083346e-01 1.165621758558322563e-01
4.006891527146406312e-02 -2.996887142989941299e-01 1.121421856428543029e-01
-4.114234183892951924e-01 -2.797399993016896347e-01 -4.063469766246506631e-02
-3.461683184942194735e-01 -2.783294315823697240e-01 1.735880929450585308e-01
1.433563329331037361e-01 -2.803727001215583492e-01 6.624392993656993966e-02
3.358497098883720527e-02 -2.654376203032117187e-01 1.914066336480122754e-01
5.549461580169363223e-02 -2.578607787020150699e-01 1.082665246963084860e-01
7.639103889087968391e-02 -2.561575958748353865e-01 1.013931913157822967e-01
1.272114768485984107e-02 -2.356591468318391669e-01 1.079802218611242981e-01
4.547075067900483575e-02 -2.347975030796418394e-01 1.019713402415064890e-01
1.391880325990913769e-01 -2.317014122459485348e-01 4.177220257162142861e-03
4.987662657988412365e-03 -2.258617473144312604e-01 1.064645509275763263e-01
6.641401389278676903e-02 -2.172362074550817368e-01 9.260435095936986327e-02
1.174719465590624706e-01 -1.916712177382149107e-01 6.469879125623276273e-02
3.981152996369725222e-02 -1.828693458674244821e-01 8.911603905174624030e-02
1.316614444039776177e-01 -1.802380044731738129e-01 5.096069002552484212e-02
-4.417953456534042256e-01 -1.661830234696986819e-01 1.570087985348382273e-02
3.464001145021210898e-02 -1.604220098028902586e-01 7.011152460036970679e-02
1.335947568163178556e-01 -1.564435813917344764e-01 6.851724036192015366e-02
1.326231184528414708e-01 -1.522107588524791444e-01 6.611915759719283470e-02
-3.449340380585744215e-01 -1.346114337212751533e-01 7.971663672887567553e-02
5.875961570945411466e-02 -1.351456731732452454e-01 6.687356952992483394e-02
1.232638809607250613e-01 -1.391412752500658934e-01 4.707659767169380949e-02
9.425831033785839197e-02 -8.822247593494569884e-02 4.860598164967980250e-02
5.154360813948744013e-02 -8.739042214357238547e-02 5.087762868268136396e-02
7.264257357648633284e-02 -7.707502893168015345e-02 4.714135712979803522e-02
4.830735555172295248e-01 -3.314199370763831060e-02 2.533046325073583932e-02
-1.324167051860621336e-01 -2.470521688359009552e-02 3.630747562156814989e-02
3.953819378667638995e-01 1.579004773026455302e-03 1.957717180495962411e-02
-8.302093003999370946e-02 2.873681515855920979e-02 8.143000633317053379e-04
0.000000000000000000e+00 0.000000000000000000e+00 0.000000000000000000e+00
2.385009440770567424e-01 2.967491559897819306e-02 1.569252230694976463e-02
2.406030221644484546e-01 2.577428418785842473e-02 1.609743205512373723e-02
-2.298797443796010351e-02 3.219529095796357099e-02 5.549696469267761945e-02
2.144408130683790256e-02 3.588730504448849751e-02 5.865208708477440136e-03
-4.942114347780689199e-02 3.713323534116504815e-02 1.454893949640398074e-02
-2.232856434220451686e-02 4.096988527402726371e-02 1.100082921794612485e-02
8.983117440100078441e-03 4.406132183812356412e-02 1.163860331041440335e-02
1.285470076437874865e-01 4.485508100623038924e-02 1.324806418290098639e-02
1.430912978562446369e-01 5.136139641401227252e-02 -1.670460268275793941e-02
2.048089287603264419e-01 5.340544557436752160e-02 1.034912866659896610e-02
2.259630902235451044e-01 5.222932932164603415e-02 1.049592886227064883e-02
1.608826208264916569e-01 5.848720099663592964e-02 9.028764999201048178e-03
2.038081820447142645e-01 5.724716218046192046e-02 2.164158978739962394e-02
2.137669260561558537e-01 6.207092967152422897e-02 8.670844006883983435e-03
-7.089796827837993587e-02 7.278788619446938113e-02 3.407268595974409335e-03
1.305706265610018513e-01 8.683812455613998393e-02 4.857057957907005147e-03
-1.078200299425567110e-01 1.137402152304601149e-01 -7.999343534043397083e-03
-1.000542197375722114e-01 1.143625912307481424e-01 -8.515274934734466672e-03
6.073309921692515018e-02 1.431365820051393734e-01 -1.267151777619560452e-02
-7.601554611236814585e-02 1.481920025095614657e-01 -1.735394872257372406e-02
2.361801218232105481e-01 1.446377901519908526e-01 -9.270937266981521888e-03
2.223053237098767676e-01 1.468540472874352854e-01 -9.356825575332114453e-03
1.090843474304224320e-01 1.631198358068899901e-01 -1.602349483036513700e-02
3.042785244007058590e-02 1.708756163996499322e-01 -1.852952312579436711e-02
-1.064911669772628383e-01 1.736417843252011650e-01 -2.266492917053705008e-02
1.969266851467987300e-01 1.738910528652635179e-01 -1.552208095096723785e-02
1.500215190984101679e-02 1.824587383860780954e-01 -1.984362699516599438e-02
1.997814220537018348e-01 2.008337947550511426e-01 -2.231927204967753750e-02
1.842657288552788375e-01 2.059627998509498958e-01 1.369613262803866661e-04
-3.124101608974598140e-02 2.379017528661090952e-01 -3.196686533248150469e-02
1.171974179226119017e-01 2.519574703046470465e-01 -1.654975397608255197e-02
4.029864372174336157e-02 2.626784330343339691e-01 4.965813569416888985e-03
2.225690249808428556e-01 2.659751287791386476e-01 -3.124079323138329381e-02
1.409006393657226963e-01 2.658135843837590717e-01 -3.138080052011053139e-02
2.310932215247616939e-01 2.648226962780373395e-01 -3.051618534900484361e-02
1.152216590992057310e-01 2.720779366873017358e-01 -3.273592122740840576e-02
-1.795551707765429272e-01 2.881566117859958864e-01 -3.968749639740863644e-02
2.933042036909186967e-01 3.330833924838031979e-01 -3.671808690347015680e-02
-3.994391528257624224e-01 -3.353243945850802876e-01 -3.796201685845723706e-02
1.301574605708478993e-01 -2.956394555634966337e-01 1.106294373768859918e-01
1.258597810652130611e-01 -2.755900257070012516e-01 6.300291018013223776e-02
9.996911795755758501e-02 -2.307065473908876119e-01 9.241811030423348339e-02
5.508866805519599397e-02 -1.781268218924921543e-01 7.746883507173529804e-02
-6.563331753032440596e-03 -1.560282025589030952e-01 8.146616247301508018e-02
1.280898260591640248e-01 -1.522791589411136015e-01 6.776499066415402062e-02
-4.535789877309211529e-03 -1.529398590220706344e-01 7.959243317979418364e-02
-4.301695294166531236e-02 -1.485078455270245346e-01 7.687943332075766745e-02
6.859612033375939166e-02 -1.338674575634147823e-01 6.672873427078233888e-02
8.610812865817502049e-02 -1.351743352258900632e-01 6.442767538835481034e-02
-1.532412072505120538e-03 -9.961162092582782901e-02 6.051185842614444782e-02
4.447581766794581615e-01 -8.871332463301458138e-02 2.956602240936389431e-02
7.420147882874021661e-02 -7.995675824728865067e-02 3.868417599168169629e-02
-2.407540296474120489e-01 -5.122014891668599801e-02 5.314737032245421544e-02
4.033167623195789940e-03 -4.301340494885934340e-02 3.958371625116743203e-02
-9.233501427967305553e-02 9.359912530129729791e-03 2.327186098291715230e-02
2.401844436911221292e-02 7.056726599870384413e-03 2.140090178772440302e-02
2.747189523776469855e-01 8.744959795274905023e-03 2.004966045912098122e-02
-1.237125625353415470e-01 6.893750911203626319e-02 2.229034960193379197e-03
-1.303577404126828598e-01 9.674211568454005317e-02 -3.645576236450069358e-03
-1.046408643669702598e-01 1.177493677124366173e-01 -1.065527263711887017e-02
-1.381685861813491678e-01 1.255989995896019951e-01 -1.206477472356867579e-02
2.627595779858530323e-01 1.260013877079252664e-01 -4.901991468179139194e-03
-1.466605360063250874e-01 1.557353363153999304e-01 -1.956950981095152697e-02
-1.079000582961376076e-01 1.772579161428534111e-01 -1.804790272359661080e-02
-1.543790745612777515e-01 1.851972163532673854e-01 -2.928113278636635015e-03
2.013557053033104838e-01 1.922335882618625424e-01 -2.032469376361865573e-02
2.241824593563700174e-01 2.053320579483482733e-01 -2.030279218677650058e-02
2.782278818454889113e-01 2.090071045710258923e-01 -2.436707893141649983e-02
-1.616994328275803139e-01 2.128952460434802851e-01 -2.618057640579406556e-02
-7.733393477844334452e-02 2.323532743584297011e-01 -3.406432150135835224e-02
-9.519979396035885277e-02 2.424700657625813993e-01 -8.431697502594676747e-04
-1.676487170950335670e-01 2.411692857824262459e-01 -3.541498471440648194e-02
-1.045184680614935774e-01 2.458140700958214853e-01 -3.558564974848472950e-02
-6.881279814216144375e-02 2.507045291461725278e-01 -3.602640862752617273e-02
-6.113250723310038361e-03 2.601897538404522314e-01 -1.020221749302058570e-02
2.852634725536327132e-01 2.533938721659706461e-01 -2.747396975891250315e-02
1.656758484509666673e-01 2.769994438399011605e-01 -2.031187868630122614e-02
-1.064489559437074157e-01 2.956505749852230691e-01 -8.315646718022994682e-03
-9.340621733010449901e-02 2.958329752215816399e-01 -6.151578182282623451e-03
2.912741511217498136e-01 2.975677216555536742e-01 -3.354308318835962782e-02
8.068816918232328550e-02 3.132974443640825224e-01 -7.702014425169599263e-03
9.397507273351814183e-02 3.150613536265421399e-01 -1.008585583926348110e-02
2.809723051591226373e-01 3.166026827556159273e-01 -3.700853472108362602e-02
1.541689480935855006e-01 3.190206641834671952e-01 1.083999426293521563e-02
1.050298925519072696e-02 -3.450559420791711185e-01 1.371634900926801681e-01
5.595266043718903626e-02 -2.996407429190022231e-01 1.097464862738155161e-01
1.040457779808028199e-01 -2.686622632414704115e-01 1.023361321292540621e-01
3.813901583302655579e-02 -2.470914321887011100e-01 1.086655955613737151e-01
8.629148773887951318e-02 -2.103169581788770226e-01 6.487596854628711884e-02
-2.996796517511475244e-01 -1.627295259713189557e-01 1.036532379933571696e-01
-3.577411233549798036e-02 -1.481428683098923449e-01 7.539662189265325387e-02
1.292296808835006472e-01 -1.518042466978040961e-01 6.633680652353077245e-02
1.649114992150988723e-01 -1.319553186515113330e-01 5.770540433534681463e-02
-3.554797547369053512e-01 -1.327431274243106030e-01 6.993401381039748843e-02
7.182957965510858300e-02 -7.986788526390788123e-02 4.771041685568291196e-02
-2.401646443610397641e-01 -4.872107125971729402e-02 4.574211835571190266e-02
-2.450961955025374450e-01 -4.330945184411183480e-02 3.840956539965100641e-02
2.739406374094876528e-01 8.229278506887833383e-03 1.975253500206316723e-02
-1.126275763655890938e-01 3.631479086975258896e-02 1.477570018693891325e-02
-3.461683957538198159e-02 3.753450407819285128e-02 1.324378979974050706e-02
2.235220685209872160e-01 4.138423309777070069e-02 1.334779723247080802e-02
1.103569551706991420e-01 4.652036688507752565e-02 1.152373632633117186e-02
-6.880671755647269072e-02 7.551953004427573724e-02 2.872183824248296727e-03
1.946866758382352347e-01 9.883736181046234859e-02 -2.134226000542125128e-04
2.299150001662083331e-01 1.520792602599404519e-01 -1.005209220165422142e-02
2.762423940849807469e-01 1.865759995352761491e-01 1.597890971156341877e-02
-1.604023458262082702e-01 2.003538158385094470e-01 -3.586413667643029851e-02
9.551389243820661290e-02 1.990974576213433989e-01 -2.334258791048168455e-02
2.859288847759068886e-01 2.489227686977902032e-01 1.384915417198636332e-02
-1.329277477914424591e-02 2.547998739879011043e-01 -7.294355155425059738e-03
2.746958865811847256e-02 2.517992251383489033e-01 -3.506559706350335232e-02
2.041019331778582691e-01 2.637171010469312460e-01 -3.005454178834239889e-02
1.615426978251937595e-01 2.763595112277155708e-01 4.146355273208893882e-03
1.823973806358454575e-01 2.769369352317692656e-01 -3.238716674409781310e-02
-2.117650911690531143e-02 -9.505355920542994663e-02 6.126297743351336034e-02
3.291053596199265685e-02 -8.067292661717706537e-02 4.707651910617860480e-02
-1.040779982801179060e-01 8.496486941555328465e-02 -2.678753254479843094e-04
2.089782490635511136e-01 2.050205753741791426e-01 2.680926610556447556e-03
-1.643041988182983304e-01 2.152144273433040378e-01 -1.005445820245481382e-02
2.819774455882647080e-01 2.146570343729589936e-01 -2.643891406121600535e-02
4.074205572200068765e-02 -1.511732985933848805e-01 7.106601846563137537e-02
4.621454481185604049e-03 -7.105308159341436336e-02 4.814060170422897189e-02
-6.778996517014433676e-02 -6.657649904836657195e-02 4.975125218849894143e-02
1.225010224490906269e-01 -6.371094184673754823e-02 4.040953799212422537e-02
1.566354690264510352e-01 -4.082949204137386462e-02 3.412223798228512101e-02
-7.422385250219805386e-02 1.589645123288962666e-02 2.262580455797891243e-02
2.360219481361330029e-01 4.188495002568132924e-02 1.314930238884837871e-02
