3.739602306332404646e-01 -4.543056620390201750e-01 2.239493270654130674e-01
2.597898211350397821e-02 -4.446424759707230390e-01 5.014677817970329965e-01
-5.358120228631894078e-01 -4.424678863311328203e-01 1.183853717368791164e-01
3.835393891793639765e-01 -4.422730587530892543e-01 2.232184326531415908e-01
-1.713641510987822525e-01 -4.358716337913043914e-01 3.675625254900883321e-01
-3.805499887172388712e-02 -4.341110458509780945e-01 3.285485373570741219e-01
2.598286584242775685e-02 -4.344471474492971885e-01 2.024348001564486299e-01
3.186965726087777617e-01 -4.337713725426042832e-01 2.392243158900882738e-01
-8.497189576562383384e-02 -4.329859571837592069e-01 4.474009855059052909e-01
1.235336235877948080e-01 -4.318735131065689070e-01 3.835886427326768433e-01
-8.528949848650177468e-02 -4.277924477407082926e-01 4.477188510591459392e-01
2.540136558270129630e-01 -4.276560120987955016e-01 1.563556735102399065e-01
3.703653883740543606e-01 -4.268272980404320127e-01 1.722708730019265333e-01
5.074592148225429700e-01 -4.273965623439897055e-01 3.487406111292563615e-01
-1.595534176048892805e-01 -4.204173819823729397e-01 9.795764538247557496e-02
6.067966852203436623e-02 -4.214869949963097606e-01 7.292955250648918142e-01
3.126534904033774764e-01 -4.210256699799092561e-01 6.390471874759937609e-01
3.658542214663669245e-01 -4.181711519398718657e-01 3.196615221357025638e-02
4.527468121273162116e-02 -4.151831403159975675e-01 1.296578809317879000e-01
2.585207440574210577e-02 -4.149217942409050286e-01 7.851866160479007428e-01
2.542263586373638140e-01 -4.142947124205656473e-01 3.871114497881612548e-01
3.389613209188659382e-01 -4.130921581490890060e-01 2.307812479038179876e-01
3.688020109491003673e-01 -4.152185702068696971e-01 4.636208566823721844e-01
4.132967567704399353e-02 -4.108421354660144464e-01 7.780691603624125818e-01
-1.432946768353016154e-01 -4.107593086144993855e-01 8.850257942482442353e-01
3.437514886357040389e-01 -4.113834594232887998e-01 2.526765655183517145e-01
4.587596863526283708e-01 -4.109815647164575814e-01 1.051679185131771874e-02
-1.282136474396611825e-01 -4.069298315591490245e-01 3.126412390893282267e-01
-7.176741357270030597e-02 -4.068325926734546183e-01 8.735521062837886541e-01
3.676719635210359272e-01 -4.025370995103535465e-01 4.944767945170163159e-01
7.124835412243472887e-02 -4.001572433257043482e-01 3.522514885748216917e-01
2.470231006825509557e-01 -4.013764557583018866e-01 2.570729512533396766e-01
2.449837911308709940e-02 -3.971799910180978110e-01 8.285952714879512016e-01
4.372807039248754468e-01 -3.933189503559550992e-01 2.040994693195943843e-01
-3.130633334891862879e-02 -3.847539675518210633e-01 8.659083579790594065e-01
4.347212873345199236e-01 -3.846039115434214395e-01 2.287296510075916278e-01
-1.431259111602501410e-01 -3.779113369795518151e-01 7.488190960930737328e-01
6.156060808478571594e-02 -3.777891476739292376e-01 1.512396111001502730e-01
3.115556124346555850e-02 -3.756282115404036559e-01 8.715149723884929589e-01
-1.771221126797580536e-01 -3.747258502935831848e-01 1.629189258165198995e+00
-3.135164351969605551e-02 -3.692676587246051523e-01 4.794049201910818292e-01
-1.769017601003149420e-01 -3.649831237152387775e-01 3.932154921753647225e-01
7.007342804902881583e-02 -3.643262089105046564e-01 1.282642540703895218e-01
-2.581572139032218410e-02 -3.622233406816822154e-01 2.064068146283053462e-01
-4.975927712199797459e-01 -3.605001047277419657e-01 1.715735717864843024e-01
3.407787491368541866e-01 -3.575692404647423106e-01 7.354812189005169865e-01
3.528617751808477143e-01 -3.527951086969138839e-01 1.253284668972058924e-01
4.646139957945819576e-01 -3.507110269265439340e-01 2.352327193794481741e-01
-3.102700901564796054e-01 -3.492991778102146339e-01 6.067557416859878927e-01
1.814357065869816044e-01 -3.481721523187805700e-01 2.610571072822436833e-01
-2.594384521522180576e-02 -3.474412994337395810e-01 1.483799816067417621e-01
1.513319429591424847e-01 -3.470016918873415346e-01 3.996431380593490346e-01
3.369136150364070992e-01 -3.471302734493094122e-01 4.555582026438844134e-01
1.708142179650518899e-01 -3.434944199006749188e-01 1.746508771965067375e-01
-3.259547059482943987e-01 -3.418486937370961987e-01 5.797912766255547412e-01
-2.307078428908077850e-01 -3.440568942729533841e-01 1.071275579139521428e+00
1.981823457063171257e-01 -3.420613319971340105e-01 2.112078936059134104e-01
5.333875395314533613e-02 -3.386541857216079920e-01 7.519494752180733155e-01
3.608979556862633720e-01 -3.375285299993907584e-01 2.480953182287199965e-01
6.136634317942658845e-02 -3.308592709696099310e-01 7.358522413660303352e-01
2.275452978493416600e-01 -3.294199233680351058e-01 2.670957789162569096e-01
4.662947481381212733e-01 -3.300450978215618281e-01 2.285533310345437552e-01
-2.672753463653832276e-02 -3.255782362193432311e-01 8.289791440631588681e-01
-5.891266313084232709e-02 -3.255094237270735880e-01 1.105537681791890048e+00
4.393646579439561828e-01 -3.236349902903863929e-01 1.933715582628832141e-01
-2.651722483087792098e-02 -3.215725302534606644e-01 5.417512739750135475e-01
1.463406059299696416e-01 -3.209528643342038357e-01 2.194872783295097052e-01
-2.623343801234642378e-02 -3.184619905638348958e-01 2.798677691894761455e-01
2.186413589217644227e-01 -3.178041036648178719e-01 3.199009539538278935e-01
0.000000000000000000e+00 0.000000000000000000e+00 0.000000000000000000e+00
2.480248685669452988e-02 -3.173829806384965146e-01 9.438243039894924635e-01
2.230452721438194175e-01 -3.154049160597696688e-01 4.448792244948316932e-01
3.572718082181765009e-01 -3.144689512810328602e-01 2.529190130781185930e-01
1.893593766423629365e-01 -3.141430493083337550e-01 3.870964120455376301e-01
3.264513985299374310e-01 -3.133699692367908352e-01 2.569970927452321918e-01
5.482378989667724412e-02 -3.092431786178799213e-01 8.498128819287673608e-01
1.364695792707863453e-01 -3.097943266188922795e-01 1.475429985218743356e+00
-4.453717782302175909e-02 -3.073326156770109230e-01 1.049971692368743215e+00
4.347097538365038427e-01 -3.083760557888152731e-01 2.398765705112783919e-01
1.244031865708704332e-01 -3.034150904455500952e-01 6.091550751041132639e-01
1.416808373539663046e-01 -3.054063077544988403e-01 1.677565896975373727e-01
1.519016349938002719e-01 -3.026279591930086665e-01 3.515507719966565192e-02
1.574000536398293681e-01 -3.020949422232428461e-01 2.271673458056643058e-01
2.312980784180947713e-01 -3.032432506879923495e-01 3.057911804670758738e-01
-1.341136581486731920e-02 -3.010669377903551491e-01 1.070859002150750250e+00
4.701992819372659456e-03 -2.993116153607279784e-01 1.047788517375158213e+00
4.937631466988731677e-01 -2.964865620875539176e-01 1.806611656732822757e-01
5.273355914398230454e-02 -2.935784831253978044e-01 8.510425032495144704e-01
2.838030347595213096e-02 -2.928740388017094798e-01 9.694177894519916405e-01
3.317761085731938397e-01 -2.918775685182115609e-01 3.087114362912789511e-01
3.350988556297747334e-02 -2.909707371105598184e-01 5.085158762033559210e-01
5.313793770707639363e-02 -2.900927150425654522e-01 8.552875570047777654e-01
-2.357451177641194939e-01 -2.832767876056739853e-01 2.395809026647250373e-01
-2.229719256296608665e-01 -2.773053597127174696e-01 6.345196223951526937e-01
1.178670669400756349e-01 -2.787243817065585549e-01 3.263500522199371812e-01
-2.286793987346275314e-01 -2.712363541739376549e-01 1.822024973817163440e-01
1.433555483414019616e-01 -2.679874530647097797e-01 5.090072109925856125e-01
4.311338986965007058e-01 -2.629982086150324805e-01 1.865587146594235302e-01
2.262412279818238336e-01 -2.620387368290905128e-01 6.042553658939933126e-01
2.276176372042451879e-01 -2.531435586358411483e-01 2.665220423202948052e-01
1.929802673460479234e-01 -2.516645171843804873e-01 1.985557501161661909e-01
2.525464693446964337e-01 -2.508405789073994141e-01 4.846377955694806672e-01
1.411724219312170403e-01 -2.481379064129642653e-01 4.862013636762111957e-01
1.320639399469874520e-01 -2.464860678383641590e-01 4.574030965388429792e-01
3.518130114530869657e-01 -2.445602165055910659e-01 2.957271083847545223e-01
3.775925763757713161e-01 -2.396169108751322885e-01 2.552909873697346010e-01
1.493342940272568420e-01 -2.214660842540857877e-01 4.610127118550851333e-01
1.765519370801219290e-01 -2.038011574874860621e-01 5.823094183730280482e-02
1.874964421056718178e-01 -2.042218975675747505e-01 1.176307550409601693e-01
1.390555935198319881e-01 -1.897694183745934349e-01 5.297389926307795038e-01
1.286892541193190298e-01 -1.827495131540028683e-01 6.228157825082983878e-01
-4.293806224605198341e-02 -1.732330046982546723e-01 1.674819336542055170e+00
1.286353526694071769e-01 -1.595479202981313349e-01 2.135365801734643854e-01
-1.784230822104839950e-02 -1.578506142227528997e-01 2.093137579969072126e-01
-1.490541683700958575e-01 -1.569589681060964137e-01 1.949395104036782678e-01
1.278892844201907075e-01 -1.535485962449952835e-01 2.692903814208759683e-01
1.705702884049704882e-01 -1.460576377008243609e-01 5.120107141552494856e-02
1.312495337605465162e-01 -1.444592495830835377e-01 2.093639766268211855e-01
2.130814282863162934e-01 -1.436378004566147837e-01 1.650300882810165071e-01
1.716432960163160049e-01 -1.426204596034366667e-01 1.289000216638982454e-01
4.224882485567171830e-02 -1.404866537376252833e-01 1.854782387665717680e-01
0.000000000000000000e+00 0.000000000000000000e+00 0.000000000000000000e+00
1.002152455739738213e-02 -1.364930547641754754e-01 4.525085475183758810e-01
-3.312524848813874767e-01 -1.301928528017748388e-01 1.316150297351411369e-01
-4.386301740327282900e-02 -1.275384168039542521e-01 1.937746591086796921e-01
2.095258156122188908e-01 -1.274392631870965298e-01 2.474911153252744300e-02
-4.040363490139794317e-02 -1.218818296290532788e-01 2.844568936942660775e-01
-4.605791268898435514e-02 -9.794933970203698048e-02 7.114162037882304501e-01
-3.694154555815194058e-02 -9.295460144679104642e-02 6.609391435556838390e-01
-5.485016498781411509e-02 -8.927802303918276616e-02 3.902587936694218440e-01
-4.563160478782569279e-02 -8.636621771560881733e-02 6.589173719563244935e-01
-1.641976500656276358e-02 -8.764858681919356076e-02 6.737553435382690470e-01
-3.209272961160626603e-02 -8.329080597847941803e-02 3.405412547753114971e-01
-4.490244329021256427e-03 -8.406447519807259960e-02 6.719544995229939088e-01
-1.368687519094510460e-02 -8.164905656423991631e-02 6.405098213305359112e-01
8.791245539431355102e-03 -8.242714439420999184e-02 5.625526467759269789e-01
-2.390406370895090810e-02 -7.990346980614319861e-02 1.841400702892579955e-01
1.079772112796196365e-02 -7.670380674521529163e-02 5.002766409319040486e-01
3.107058996216348346e-02 -7.478309572918065418e-02 6.892805468811415981e-01
1.588709277031442602e-01 -7.596922749875645309e-02 1.386387884209553389e-01
-1.003028556482943832e-02 -7.493515484095114587e-02 6.965688763119118887e-01
4.152809891842252493e-02 -7.263656426548377454e-02 3.610567599501866010e-01
1.749022545679728424e-01 -7.191376798003000503e-02 3.688409586242376026e-01
5.329038507430087016e-03 -7.091274652784393395e-02 4.483521376913127687e-01
4.166136181896876872e-02 -6.957620526103835967e-02 3.373463843497209180e-01
6.326262286344309926e-02 -6.706101440489521670e-02 5.883220090177909700e-01
8.293853510135021367e-02 -6.015178064554482090e-02 4.151096462956231359e-01
4.203241865253155019e-01 -6.309074569423546441e-02 6.529951171535473831e-02
7.157505810705323823e-02 -5.354737208739569765e-02 6.334330787549853348e-01
1.001951588268385485e-01 -5.192135292609796615e-02 1.595891698192548613e-01
1.161773702511361001e-01 -4.789426088599123971e-02 4.945329700946368146e-01
4.727447980592315302e-01 -4.789414305638118458e-02 1.246964692842089939e-01
-1.979594155846456024e-02 -4.349376681163370784e-02 2.973990848658518149e-01
-7.197874334757300985e-02 -4.258857028982139525e-02 4.917411167818255269e-01
-3.872488326669815129e-02 -4.196642994875347116e-02 5.109121956507080009e-01
-9.841473571797631700e-03 -4.181127780971916064e-02 4.036103845037570803e-01
1.463676743436808370e-01 -3.975491545511360830e-02 1.482894648207707944e-01
1.720985945808551909e-01 -3.828667014167382032e-02 1.496758987667892837e+00
1.665702829909885274e-01 -3.792949913620750901e-02 1.609738959414946491e+00
1.469218314626435096e-01 -3.212774588172404022e-02 3.670687440220721243e-01
1.945015906557868435e-01 -3.204335042352519231e-02 8.053404641468050462e-01
2.351293193565950901e-02 -3.201041704751601130e-02 3.508699961748190654e-01
1.588793228343532427e-01 -3.069959209310401532e-02 4.319263333088753098e-01
1.920420525890670915e-01 -3.210037995478975253e-02 8.315847705858224748e-01
3.351568357569659207e-01 -2.985236773943666586e-02 5.170786850347675045e-01
-1.129026149866458190e-01 -2.378234592027016897e-02 4.312210193415975112e-01
-9.002360712624815631e-02 -2.439900718447073069e-02 2.146604348932829032e-01
1.957797689971461363e-01 -2.525536333291700936e-02 3.672945354859847300e-01
-1.154735650750174092e-01 -2.336263684926942474e-02 2.437372598114632971e-01
1.864708238331134194e-01 -2.396960662804331274e-02 3.785141422806583833e-01
5.678009084587942734e-02 -2.246730855729886164e-02 3.820271511679625420e-01
-9.747691445641624985e-02 -2.059384721489457282e-02 2.133710484277076824e-01
2.061170000455233020e-01 -1.803894778016432859e-02 5.620055221446942362e-01
2.538135064838905608e-01 -1.641269295964649724e-02 1.044790475250207074e+00
2.213208965016614793e-01 -1.686748579703985229e-02 8.654287644873869256e-01
2.347610308122127232e-01 -1.263601829830010917e-02 2.914150547726029328e-01
2.701076715688132679e-01 -1.207028888304398362e-02 1.557341951267831703e+00
-1.264752276060415181e-01 -9.173889780984177678e-03 1.674609319690014420e-01
9.120263949613109655e-02 -1.247364909565018727e-02 3.732338405301828810e-01
-1.256608606491856350e-01 -9.145404472754409611e-03 3.989788815346138051e-01
2.504734996094405419e-01 -5.533043202623781111e-03 1.021780371734237303e+00
2.909279892629272890e-01 -4.939123053163014913e-03 2.622571752143005308e-01
-1.181716190190763294e-01 -3.396114852146032981e-03 3.920929315604057552e-01
0.000000000000000000e+00 0.000000000000000000e+00 0.000000000000000000e+00
3.078394710988054395e-01 -1.503093794473321382e-03 2.344195534542945492e-01
2.880811767322121186e-01 2.997702735439903947e-03 1.047942617042765034e+00
1.543774141087467244e-01 6.298758175816472279e-03 1.456915248464450696e-01
2.963929058432906438e-01 8.651373627492103813e-03 6.319559210110340351e-03
3.025051890367873586e-01 1.015979883795919275e-02 1.120397801259631759e-01
3.621249013890667084e-02 8.229278506887833383e-03 4.643021586730626260e-01
9.687092224559416820e-02 1.593869314809281956e-02 1.734755321193652000e-01
1.785280881993789870e-01 1.270586105193562999e-02 4.259918626449841206e-01
-1.235686684172362798e-01 1.436731746845612036e-02 1.693246301311060742e-01
2.857547066176830200e-02 1.788188016224463370e-02 4.020537415172044660e-01
9.784632664923904877e-02 1.840887309319657814e-02 2.865115945402958025e-02
2.064368008227360912e-02 1.993458979893861227e-02 3.075809866113635715e-01
1.986452548103635474e-01 1.835331643205765501e-02 3.841476161475481099e-01
-1.342902709403122896e-01 2.614220714524186431e-02 2.646519783701270501e-01
8.965777843533895286e-02 3.101069097331843327e-02 2.034123013411752445e-01
2.316046968551478680e-01 2.877245861559955820e-02 3.180010132493450437e-01
-1.403850185092743730e-01 3.252326967753980946e-02 3.724791297410024460e-01
2.129645241227520469e-01 3.334919632919048499e-02 3.247789977967134312e-01
2.178811680219160385e-01 3.840220132660651653e-02 1.790311115208479895e-02
-2.288868435810065965e-02 3.910817743522553708e-02 1.831435799983875956e-01
-1.155753658483225366e-01 4.194734080420319672e-02 2.153977446173270527e-01
2.325273766964335853e-01 4.167927844133775817e-02 4.700507661114005087e-01
4.892813247204019778e-02 4.310148183465021404e-02 5.951911880755177131e-02
-1.035743296371643696e-01 4.603320036232273066e-02 3.479216977919780684e-01
9.288786401237052182e-02 4.391916041359734263e-02 1.494407361010546276e-01
2.352891394866764851e-01 4.612822994282865519e-02 3.034000568740149451e-01
-1.675749250459119058e-02 4.837742045428224807e-02 3.552298772427027740e-01
2.881288811072498304e-02 5.045776113453313144e-02 3.268595218970269389e-01
2.187649321147937809e-01 5.206749035224134126e-02 3.103370349007642526e-01
2.401382300403177850e-01 4.989217900628956787e-02 3.611800851042634708e-01
-1.088083801092808583e-01 5.202047633783109942e-02 2.532729268813154744e-01
-8.867834619438721977e-02 5.115737444420941082e-02 2.190457318779352180e-01
2.150002269517435616e-02 5.394015634477778570e-02 3.511261131956882608e-01
4.070066850973213385e-02 5.492833436946834014e-02 3.537120964953482383e-01
-9.120139695936553548e-02 5.709769532011255144e-02 2.114790732185690414e-01
1.414710387324819366e-02 5.754951295985212545e-02 4.112076782753435467e-01
-8.492427104932619153e-02 6.018559699590732975e-02 2.727294648102767116e-01
6.681753060457878632e-03 6.134839850269308004e-02 4.010844033515041374e-01
2.414288061301349958e-02 6.049949507708250740e-02 3.127837493009434366e-01
-8.113610539482309092e-02 6.076090006698008084e-02 3.617778496962487100e-01
-2.756923141893242047e-04 6.458859494947843949e-02 3.009113189407797706e-01
1.775010588613272489e-02 6.425920227458159495e-02 3.730805253270861876e-01
3.474294988148479701e-02 6.605333483201920874e-02 1.478670177222914106e-01
-4.632663534684180323e-02 6.547214028044393008e-02 3.604104480480072592e-01
-6.175672959060130029e-02 6.788440697220775311e-02 2.935911737970594571e-01
-5.621366767674128989e-02 6.873007008354192759e-02 2.376358200228276818e-01
-6.662347225796263518e-03 6.723351620628745251e-02 3.331298523062835026e-01
7.486940294402992524e-03 6.983861105489930221e-02 2.390801659969128967e-01
-2.812960000760767257e-02 7.201203712709026983e-02 2.137935918978654259e-01
-4.605791268898435514e-02 7.250173698646115994e-02 2.451702777564304658e-01
-1.879503792451202998e-02 7.292692513432925960e-02 2.155989945844943023e-01
-3.852104634257737942e-02 7.570758610191673232e-02 2.707047519002978575e-01
8.521769553583222190e-02 8.031042307413389925e-02 3.704847837729231541e-01
1.005716059253494998e-01 7.993018692250014601e-02 5.165499373127750982e-01
2.392180608924777685e-01 8.134473139115930285e-02 9.197871500494950864e-03
-1.449511852952561353e-01 9.579759353037330116e-02 2.230507831923053130e-01
5.953102627063788094e-02 9.751755234828397845e-02 3.038322917747421914e-01
-5.109628316841663409e-01 9.847032257515428433e-02 2.504450683796682342e-01
-1.731548247397400597e-01 1.008717489427934377e-01 1.985326153030994578e-01
-1.306024545644660362e-01 9.920092507227390444e-02 2.331963939236698369e-01
3.975872694216788655e-02 1.056279411524916473e-01 2.993303903920276343e-01
6.917844429481571911e-02 1.043502557759064253e-01 1.255441449870461912e-01
5.457946804074495506e-02 1.058299600189236411e-01 2.995873622275515569e-01
8.043772751111716302e-02 1.070039553386642056e-01 2.509057798446902021e-01
2.289891819581155452e-01 1.066336168742747226e-01 3.137102902848269009e-02
6.097844104206973787e-02 1.080591784114736387e-01 1.771654428181031193e-01
8.597459115053317225e-02 1.090397564263159147e-01 2.422911924442509579e-01
-9.706708298099482601e-02 1.123723902021860760e-01 2.189091448491954084e-01
9.694553691643283122e-02 1.130838453876724520e-01 4.787175027638919667e-01
1.094007732637477109e-01 1.169896613016344622e-01 4.313729769412215087e-01
-2.654765926294670453e-01 1.170126969903993869e-01 1.672562766541342560e-01
-8.747446868718586344e-02 1.194504148779341607e-01 2.777653986006374254e-01
1.141196215948945963e-01 1.195143374413866894e-01 2.275800004724214953e-01
1.068845876761599090e-01 1.228941030612771546e-01 4.152123367323473091e-01
1.271380378657425425e-01 1.232886555105320581e-01 5.006140330869267574e-01
-6.996167577106846003e-02 1.243674445053516292e-01 1.937181188075100813e-01
1.373946128871773587e-01 1.265484116725858477e-01 5.186974923418328220e-01
1.229251727230694091e-01 1.294493766720351269e-01 2.600343807542755403e-01
1.437497272123730019e-01 1.295752186955693164e-01 4.100829717025960552e-01
1.342023446301712775e-01 1.320565924536278857e-01 1.697248563815924038e-01
1.489427827680718242e-01 1.310813756860429169e-01 4.392774240025667520e-01
1.547698668779738662e-01 1.319688093941401019e-01 9.368137522401377426e-01
-4.857923060699836926e-01 1.336507681628094080e-01 1.517461633847217994e-01
-8.823583647458692336e-02 1.338585606801338812e-01 2.954811830656583482e-01
1.394544799410136759e-01 1.340111500251496002e-01 3.998768248788695662e-02
1.600364386761288782e-01 1.340307097404180303e-01 2.080528246735407760e-01
-3.548499041335140824e-01 1.388375097676330383e-01 1.108361791224261317e-01
-9.699537129945272340e-02 1.358723865455111202e-01 2.004435163467325476e-01
-3.131339467423459311e-02 1.377686773748627580e-01 2.686489327101163616e-01
1.647838461452203196e-01 1.366978418787216099e-01 3.892292706823387571e-01
1.585967913625445647e-01 1.408803217170827571e-01 2.047692824309244597e-01
1.786328311915657552e-01 1.405053878979012905e-01 1.298119538905582182e-01
1.626593287351578709e-01 1.417205646663546037e-01 2.041439418535186678e-01
1.830782493146445589e-01 1.416257118302637341e-01 5.771099023748138546e-02
1.958413594457353857e-01 1.411631716960095595e-01 6.101952267927183288e-02
1.681648871656731270e-01 1.438384929922116584e-01 2.003635439830891429e-01
1.742872131329525343e-01 1.467357463589443189e-01 2.676247971119369296e-01
5.546684245502072307e-03 1.502823587066666466e-01 2.638508602520308610e-01
-4.447343673238703388e-01 1.510068340640636220e-01 1.504148497877517143e-01
2.040801999877191464e-01 1.526648145070876317e-01 7.330009931205151708e-02
9.929688098704788149e-03 1.568117687180184683e-01 1.680477805216696874e-01
3.433617831370029683e-02 1.599731960704849076e-01 3.764731108832083395e-01
4.628849138017832737e-02 1.639190740518641776e-01 2.572894873886852896e-01
-5.852687819151040048e-03 1.679585087436237245e-01 9.601506671920030656e-02
-4.672321420763762001e-01 1.748662696328484867e-01 1.212380417627343110e-01
6.452950308429686310e-02 1.815665914935788994e-01 2.719814507059821196e-01
4.724632092970348224e-02 1.881830186719531950e-01 1.059002841357346153e-01
6.878002862865510714e-02 1.966072466425310139e-01 3.577921731455696586e-01
8.757578589551263948e-02 1.975376292434916914e-01 8.363076652151850421e-03
8.049013823679564139e-02 2.007774722014468993e-01 2.363850602326857120e-01
1.596180943807432306e-01 2.041336129845221781e-01 2.607833451969454042e-01
9.305325594310438764e-02 2.057870569875592248e-01 2.369324251338884302e-01
1.306691712787446114e-01 2.197470967827359900e-01 2.384678343947159787e-02
-1.904449113013090278e-01 2.590873400088175016e-01 1.341842367600517005e-01
-1.720162644917113404e-01 2.669501098875035061e-01 1.410999044435050087e-01
2.107915974046901675e-01 2.990263933131768748e-01 1.882933162907359792e-01
2.172090083110066183e-01 3.118215106685869320e-01 2.452327491128778736e-01
-5.205324770559058845e-01 3.427561430024786415e-01 1.379161424862449803e-01
-5.156042113921592840e-01 3.424349984002853509e-01 1.365231392424867130e-01
-4.572822051067870208e-01 3.498734049383736555e-01 9.835586188549506892e-02
8.757562897717229011e-02 3.770235858566556297e-01 8.676450808285503247e-02
-4.584762457955274262e-01 3.988180575093012159e-01 1.187640718153824132e-01
4.851436222631888562e-01 -4.302164973934771708e-01 3.983547083900519925e-01
1.260161501913765192e-01 -4.121648980327947132e-01 4.481360745382257926e-01
3.652351001544973941e-01 -4.092464942510579129e-01 2.645964653042369719e-01
-7.535127154806156580e-02 -4.092068961377302028e-01 2.080738059020307285e-01
3.573161388488965695e-02 -4.026016406792588542e-01 9.882252847740484736e-01
6.749023833010955875e-02 -3.988143392599560189e-01 7.211383333206768942e-01
-1.938743616297612660e-01 -3.857294788934311214e-01 5.546312863016481520e-01
-1.226077789600742013e-01 -3.532652046549125679e-01 2.162393951417885818e-01
-2.806126207038319234e-02 -3.489169827413138303e-01 9.702702943359732268e-01
2.727732446159886193e-02 -3.381466494050156535e-01 9.171629573426870463e-01
-5.085765242458410024e-02 -3.228012132409660562e-01 9.607899505051251676e-01
-1.069551352801066252e-01 -3.144458861348654044e-01 6.355037180955576126e-01
-4.734338773317015719e-02 -3.099460616992351092e-01 1.011768730483426193e+00
5.572709032292914172e-02 -3.059398549575098603e-01 7.571421409926248902e-01
-8.407239940955567314e-03 -3.013529544400520566e-01 1.047638765713073239e+00
2.552274203892265433e-02 -2.948801320989271058e-01 9.764152944975371673e-01
3.270042230425769525e-02 -2.929804831256890285e-01 1.033344622576219729e+00
9.085145625041725348e-02 -2.923552939434610476e-01 1.453156773486522280e+00
-2.208337955535726593e-01 -2.611504783137230112e-01 1.782471523132741764e-01
1.550527121864632429e-01 -2.454114028798963787e-01 4.205878507268619448e-01
1.542564300683332557e-01 -2.320086529541558473e-01 4.480988840233750548e-01
1.878061204503618242e-01 -1.983713628545302754e-01 8.125422907955280882e-01
-3.552555368437611272e-02 -1.715897824138895300e-01 3.251825875155430201e-01
-6.148361321921392425e-02 -1.558649496341777962e-01 1.181561143260318802e+00
1.068255079210163605e-01 -1.544114035645918481e-01 6.760070425220290335e-01
1.074959415301818544e-01 -1.353304889166098146e-01 3.017215099529269029e-01
-5.249650637167883362e-03 -1.140859575114735597e-01 2.955630837642046482e-01
7.127699171954945956e-02 -9.678547772876078259e-02 6.595661294771498762e-01
2.066145096436179107e-01 -6.150861806268163173e-02 3.041839478194542368e-01
0.000000000000000000e+00 0.000000000000000000e+00 0.000000000000000000e+00
1.387601162849440573e-01 -4.307167169102943394e-02 5.982854507875629002e-01
3.353418424802441788e-01 -2.873292752914959058e-02 3.742782905690049677e-01
3.230665130101459392e-01 -2.635418336144520687e-02 1.090236864557265345e-01
2.033242458830603339e-01 -1.879800612811121166e-02 1.828293537089520637e-01
2.375335425087699293e-01 -1.912015228198993971e-02 8.788996220535520709e-02
-1.259863877462514825e-01 -9.750106031534819598e-03 3.999485315996321178e-01
-1.101838478216600886e-01 -2.113480631938678515e-03 4.003863155699455834e-01
2.787586581317387235e-01 -2.690993008199878741e-03 2.825917189848820010e-01
1.761303759587589945e-01 1.172127683035162869e-02 1.533013396222886737e-01
-8.189872852894698740e-02 1.691402774528783653e-02 2.314549819119528784e-01
2.280601469240454704e-01 2.884698584395665316e-02 3.186721633664935660e-01
2.322271919113350069e-01 3.328851408001435447e-02 1.043643672361642266e-01
2.500447987035914199e-01 3.696114519568594048e-02 3.856394841244555893e-01
5.227049312159555428e-02 5.782617688425126939e-02 3.531760077867712733e-01
-2.484757445991870109e-02 6.810080105106593173e-02 3.275440940125188272e-01
4.472319170555498491e-02 7.355967014030175000e-02 3.256337428870570427e-01
5.603441489251383828e-02 7.467433825138176939e-02 1.556973783828056734e-01
2.568401474326522105e-01 9.072661951742452824e-02 1.046726520938266562e-02
6.577841615518001395e-02 9.799847390170608741e-02 3.088156901285087907e-01
1.748775399293669708e-01 1.006050416204435777e-01 2.839427827298293128e-01
2.295485958414800742e-01 1.018517378095854520e-01 1.092384208379381105e-01
-1.463249661354765474e-01 1.144078967158126542e-01 2.599685664842802946e-01
2.324429546293227400e-01 1.099951778194123569e-01 2.666384777891241398e-01
-2.605796419820175513e-01 1.178742670990904073e-01 2.665262829927166899e-01
-7.471528151460390954e-02 1.307535147960767474e-01 2.846917592184817769e-01
-5.337556411391580075e-02 1.452337723196275299e-01 2.026173079656371501e-01
-4.946858687723049708e-01 1.498046185527159013e-01 2.089134496168799093e-01
2.096588039056694885e-01 1.634990114920332749e-01 3.805565625013022091e-01
-4.702994542974786030e-01 1.665442588489896847e-01 1.311223405775059636e-01
2.762807618187673037e-02 1.708058612704999035e-01 2.689006966002036592e-01
5.481382558206471939e-02 1.844009238485444790e-01 2.093138621169155777e-01
6.685103147067464335e-02 1.889256987041030289e-01 3.034975203284923650e-01
2.091081774493648293e-01 2.988099403195136339e-01 3.251244832693371833e-01
2.158044322464915954e-01 3.093219911505805664e-01 3.114522402976314108e-01
2.634260113769093525e-02 -3.964623497780837558e-01 1.077153838614157561e-01
-1.858463801076291333e-01 -3.645358425154862081e-01 8.512468422540463431e-01
-2.994522366468186161e-02 -3.594177587515690053e-01 9.466180442014741070e-01
-1.708783711466291544e-01 -3.580473635649257247e-01 4.311774305806209684e-01
-2.338239272935716540e-01 -3.405881820261758564e-01 3.154366969486576688e-01
3.042785244007058590e-02 -3.156155070303328647e-01 4.652070823307830061e-01
1.968463429565371348e-01 -3.087674857534038475e-01 3.292529235158100365e-01
4.394115765277222252e-01 -3.072625659738357218e-01 9.131086800668920117e-03
4.931275489612664265e-01 -3.011295347706945957e-01 3.010112746608192835e-01
6.180132081888984469e-02 -2.891331843418185055e-01 8.266688991785835494e-01
1.422641812842349585e-01 -2.808661410710483475e-01 4.124459381344004472e-01
4.263683671590982605e-01 -2.768978901924607494e-01 9.684290930364880534e-02
1.643289398765320208e-01 -2.649357250792006013e-01 5.732466801837222681e-01
1.683159995274347009e-01 -2.151203411474005567e-01 9.602569154700081322e-01
-3.130252807916502483e-02 -1.724464036789584431e-01 1.703490916150223855e+00
-6.105161702821740310e-02 -1.524720460127666766e-01 3.535750732193324031e-01
2.046097209272461359e-01 -1.309547685177654686e-01 2.043740149194475941e-01
2.060426992113653377e-01 -1.308496939630027223e-01 3.175070472572734392e-02
-3.504628584334773533e-02 -9.328296311259995366e-02 7.096233808691025935e-01
-2.578735840030306828e-02 -9.001445810199990016e-02 2.108642943679620019e-01
-1.644247893632910795e-02 -8.686107262041942167e-02 2.191059635147928342e-01
2.064513157692188933e-02 -7.205643018039895042e-02 3.032609901187514057e-01
3.617761503776283777e-02 -6.416523390828818285e-02 5.764514213343797655e-01
7.026478996509138986e-02 -6.459033368394874464e-02 3.358060963323875048e-01
4.162862068729676901e-01 -6.802627457043089465e-02 5.687200320552292243e-02
-1.105054519602170632e-01 -5.465143553357115075e-02 1.908688270800008580e-01
9.662981721563915216e-02 -5.429491259096011491e-02 5.420210786437312800e-01
9.064950234638073645e-02 -4.805147504320143870e-02 6.161871129173766004e-01
-7.101899154837851280e-02 -4.580852950108053878e-02 4.987710573812689785e-01
-1.257858461072781653e-01 -4.029648980030933053e-02 1.928886439952248455e-01
-1.350117422396781841e-01 -2.967255975449923505e-02 1.934573998412081886e-01
1.881469470856122761e-01 -2.878898496613123068e-02 4.128163919856944197e-01
-9.094867997222427780e-02 -2.370004193764972678e-02 4.422087139302265379e-01
3.325830611384679725e-01 -2.639536481015794175e-02 2.362154559377857219e-02
3.273725876469897877e-01 -2.314167687302177284e-02 3.882531851432189374e-01
-1.057856621190280538e-01 -1.645157673096324380e-02 4.253952281551645620e-01
-1.090812218735726091e-01 -8.436129135053966818e-03 2.126630715359230372e-01
2.719431453959423317e-01 -5.226921875711952430e-03 1.473116448689774927e-01
2.929406238963168096e-01 -5.392973253675961004e-03 2.677741148339198296e-01
-1.604651916215203145e-01 -2.388583314004648784e-03 2.539800718720944817e-01
-1.731631414117788537e-01 1.090854709502663347e-02 1.580028659885039100e-01
-1.215065652770499216e-01 1.090816414879396991e-02 2.126133055691624418e-01
-1.795342221781055791e-01 1.600367617803580278e-02 1.591064920608984967e-01
2.039669834051532349e-01 2.029503057608383551e-02 3.428702083725809757e-01
-9.940465626767387708e-02 1.895106604384506899e-02 3.046943933766627088e-01
-1.412257869768949181e-01 3.262477988659852335e-02 1.753596966461806461e-01
-1.983490057937311313e-01 3.799180079479978073e-02 1.593582768211238010e-01
-1.217712865172283221e-01 3.769127637436536088e-02 3.214446098208979530e-01
-1.160221908224825793e-01 4.992676199683945826e-02 2.539208323774783116e-01
-2.191335853358293562e-01 5.722860401687893117e-02 1.582014511539528157e-01
-7.853745921937889396e-02 6.269189171649164338e-02 2.792007882991430212e-01
-4.284422507851986389e-02 6.662751852179647771e-02 3.462021244880418847e-01
1.364594592374033383e-02 6.733308222678031918e-02 4.202543286281812396e-01
-4.094492471645152371e-02 7.398421022531456726e-02 1.858423665777716727e-01
-1.935103763440399307e-03 7.549637652590077130e-02 3.268004122707839354e-01
8.895007672033920787e-02 8.086940674421461139e-02 3.243053171915512012e-01
-1.778191047180285866e-01 8.979376249465280402e-02 1.656510007227478265e-01
-2.499273581357932261e-01 9.193107379136321311e-02 1.488648254791431480e-01
-1.792607919700374974e-01 1.018595145638488131e-01 1.744010013462854447e-01
2.487422195603069819e-01 1.081972157996480832e-01 2.632271592817205796e-01
1.892335281333984709e-01 1.112325065545552022e-01 2.828074230601831940e-01
-9.391216128899318449e-02 1.133582116346756180e-01 3.968934732424233558e-01
1.868750454778671521e-01 1.119139151894786438e-01 2.830729655835076408e-01
1.112731229008601247e-01 1.179073772195146641e-01 4.154327631980684332e-01
-2.737372448207601172e-01 1.205367449677969827e-01 2.644950937271228764e-01
-2.716479555781073363e-01 1.183215482988430184e-01 1.640866453239964717e-01
1.577283268078514267e-01 1.328191267750712667e-01 2.709668600248392178e-01
-3.516674825023652917e-01 1.393999104964052105e-01 2.036273962120181691e-01
1.435718602735809313e-01 1.361741481768510842e-01 3.840127460378710555e-01
1.536603757524958869e-01 1.399170057401128986e-01 2.983730782960836159e-01
1.903119494274862211e-01 1.395791293332923899e-01 2.634575300989910329e-01
-4.432507338380053397e-01 1.519432259751368752e-01 1.612436160931773332e-01
1.846848577423662596e-01 1.506051529234006536e-01 3.567067020176196146e-01
4.214566424215707044e-04 1.632290638554070306e-01 2.543954829898967263e-01
-4.085097586455889163e-01 1.664102276675569481e-01 1.750601626299367053e-01
1.435941438774811750e-02 1.708756163996499322e-01 2.497973090274504537e-01
7.056568088272155426e-02 1.737713968962569799e-01 3.175165404510105205e-01
1.379542621480524534e-01 1.982763619837047964e-01 2.263958627803170920e-01
-5.344621659666051045e-02 3.173562620266954237e-01 6.445787166074831709e-02
-4.129383264623022465e-02 3.226204176853224026e-01 1.317098509825737895e-01
4.180972810977414550e-02 3.577743516107160793e-01 8.856851419295939942e-02
6.522606359713142843e-02 3.678565600243179357e-01 8.728760039163352413e-02
-1.309527355297228357e-01 -3.512012570191599958e-01 1.140691220692137575e+00
-1.848174665499232872e-01 -3.469783910819539963e-01 2.675263697184879774e-01
-1.060705865955271221e-01 -3.121220505654446753e-01 7.436506973476356697e-01
1.072304356983016932e-01 -2.849234858635356082e-01 3.198519643148112213e-01
2.028530201069751182e-01 -2.786079365944258979e-01 2.040866878224246728e-01
4.322602585435668110e-01 -2.729001819113603955e-01 2.479736609375866041e-01
3.503924297178557801e-01 -2.523985956549966159e-01 2.196338661097744782e-01
4.398516540132470509e-01 -2.502654231233392146e-01 3.166688237459058253e-01
1.623148929780793004e-01 -2.426653985463650687e-01 1.938679608559716216e+00
1.366244576727164428e-01 -2.303691423025073237e-01 2.879121371071073909e-01
1.558678245054357925e-01 -2.312080302112635710e-01 1.460437530751735657e+00
-5.933100742622798851e-02 -1.513204088615332232e-01 1.073888939804984011e+00
2.072579532982424255e-01 -1.314980219349043966e-01 1.462323856495782171e-01
-3.776591605920542188e-02 -1.157147162112049793e-01 8.397884767454699695e-01
-1.080501506886868968e-01 -5.715661087285998226e-02 1.946664240644107591e-01
7.595064756867418720e-02 -5.636344085280341198e-02 7.257119545599458044e-02
-5.680493598319784343e-02 -4.720734371679792540e-02 5.116750040746702588e-01
1.550556151757598033e-01 -3.836043147756558469e-02 4.398270132258669807e-01
-1.378837009344351938e-01 -2.863291964761902411e-02 1.924368683951180048e-01
3.823361393455240731e-01 -3.851025182674510522e-02 1.369983718682147023e-01
-6.221763798580817739e-02 -2.228753002976394115e-02 4.545196318874424879e-01
3.174096068403586268e-01 -2.770686728482772698e-02 2.306987530855456603e-01
-1.494272809538742808e-01 -1.115292645399392976e-02 1.942983181606203480e-01
2.373942774817051349e-01 -1.527828838888297888e-02 1.168799453690912982e-01
-9.693158399409854131e-02 1.979725938842447422e-02 3.697187045659059423e-01
3.134046584986554529e-01 1.957344204413308947e-02 2.303391515469085382e-01
-1.874695041906731807e-01 2.542863102677457229e-02 1.601628758958862642e-01
3.031033617502195687e-01 2.342075555670489889e-02 2.469237893516104954e-01
-1.420146547034431550e-01 3.743346518757433711e-02 3.344921627222073868e-01
2.444730991926166996e-01 4.474485140602791483e-02 9.657574617564193553e-02
-2.235272204065910928e-01 6.423534177854631211e-02 1.582547869435091958e-01
3.018608823312909362e-01 6.899159290304954228e-02 2.447220745423761001e-01
-2.416099799644619017e-01 8.378999037373734138e-02 1.734570745756836563e-01
4.761119530061327931e-02 8.310881739803399615e-02 3.211544599813401790e-01
-2.592955007437247605e-01 1.047552950604558469e-01 1.476207629910534502e-01
-2.480504970963955946e-01 1.144662223727877653e-01 2.374611471578249311e-01
-2.388189911333279125e-01 1.339901763545605640e-01 1.388905486498041020e-01
1.859960673943702458e-01 1.342150541653424067e-01 2.721825724185906736e-01
-3.451827928576217119e-01 1.379510186964162666e-01 1.602574369327569026e-01
-4.180505310427031773e-01 1.623280208273489844e-01 1.989621365611269621e-01
3.895797265133779663e-02 1.870351226108388776e-01 1.339808303624774877e-01
1.590275322068182562e-01 2.881759358420442063e-01 2.544829337350788534e-01
3.446336835451782044e-01 -2.609041407852106809e-01 2.227801801833217965e-01
3.884326522458151354e-01 -2.408078442013176501e-01 3.990747991015836105e-01
1.757320387517685434e-01 -2.339279794722723960e-01 3.306426020295958335e-01
-1.462958970129258351e-01 -1.889947476033148333e-01 3.860008203636723367e-01
4.005715412189749247e-01 -7.166723897840134028e-02 1.983508620793933419e-01
-1.071179772878097236e-01 -6.078682332891329615e-02 2.220680128499653017e-01
1.427481174458888891e-01 -3.758163666993520613e-02 3.258507112454948618e-01
-6.927190197645423375e-02 -1.196164998257719971e-02 4.331777938209105949e-01
-1.681780418866350990e-01 7.264018341352152831e-03 1.632610468456247577e-01
3.081087429708541103e-01 2.533366036107367186e-02 2.469926740652401143e-01
-2.079249867434624921e-01 4.573397206759887562e-02 1.580635169374223215e-01
2.437518240411762627e-01 3.971382163088635342e-02 2.977544254202730833e-01
-2.463390672173169371e-01 9.251474276474956626e-02 1.246249438991178377e-01
4.700301904298350569e-02 9.360849612004558395e-02 3.077816239487330963e-01
2.388451444566248028e-01 9.449528176528747270e-02 2.694782470378161987e-01
-1.774088024875861147e-01 9.949208203870929523e-02 2.660702765810391557e-01
-9.369365250004924039e-02 1.364943501421639616e-01 2.941046531020947707e-01
-3.382399801182126020e-01 1.370579291670366573e-01 1.421413779360880536e-01
2.757577517907952025e-01 1.375157561168888209e-01 9.392359223584006989e-02
2.016098345555149274e-01 1.487231783916702077e-01 2.583876008106075761e-01
-1.040288828395868753e-01 1.868884247463256931e-01 1.878804664403840863e-01
6.699398407873778660e-02 1.832914402403066911e-01 3.084436932675012621e-01
-8.590469683986241833e-02 1.935278876134649273e-01 2.193872900607404808e-01
-4.223141972984962439e-02 2.101835153977725246e-01 1.991438391549220921e-01
4.218593983077456588e-02 2.441131996747390176e-01 1.621185802966375600e-01
2.289161364706804036e-01 2.582109233692600481e-01 5.511421132233150777e-01
-1.495495203410106000e-01 -1.855802222484593811e-01 4.181846890038925513e-01
-1.018443833939238485e-01 -5.053915268539773548e-02 4.761468271703437338e-01
1.666133570754159132e-01 -3.711338179959355194e-02 4.216206980056766973e-01
-1.630361417098919186e-01 1.884714032778031512e-02 1.735589836965631683e-01
2.931577988793677703e-01 3.607253319148826659e-02 2.504860468007468199e-01
-1.249729698746556705e-01 4.295119016703049381e-02 3.269679764724174320e-01
-5.608287624005563882e-02 1.419588750526822041e-01 3.364531364313319561e-01
-3.759142286473098060e-02 -1.087044730186385727e-01 7.374185378245196043e-01
-1.502800144449468744e-01 1.709088998997400008e-02 3.492744529754114313e-01
1.748900933965953364e-01 1.431382905344851242e-01 2.340720111214107946e-01
-1.799811648410208909e-01 1.602879189589304365e-01 1.795102118992466245e-01
